ply
format ascii 1.0
element vertex 1284
property float x
property float y
property float z
property uchar red
property uchar green
property uchar blue
end_header
59.5691 -1.7061 -9.94604 255 255 255
65.9744 -6.21012 5.39366 255 255 255
-8.29869 6.99571 24.9262 255 255 255
59.852 -2.5309 -9.0089 255 255 255
60.188 -3.14569 -8.42974 255 255 255
61.1802 -4.0805 -4.78335 255 255 255
61.1803 -4.0805 -4.78346 255 255 255
-2.29466 21.7286 -66.063 255 255 255
65.657 -6.70719 3.18691 255 255 255
65.657 -6.70719 3.18691 255 255 255
-10.564 7.19284 22.5271 255 255 255
-10.564 7.19284 22.5271 255 255 255
-10.0937 6.96902 23.1389 255 255 255
68.2232 -8.37705 7.43448 255 255 255
5.67802 17.5905 -59.2709 255 255 255
57.7403 -2.67241 -14.3747 255 255 255
58.0995 -2.71116 -14.2108 255 255 255
-0.96492 3.11281 28.7541 255 255 255
7.92207 0.0992007 32.209 255 255 255
65.567 -8.25224 1.67429 255 255 255
-1.50521 2.55861 29.3622 255 255 255
58.0707 -3.7073 -14.7081 255 255 255
68.3648 -10.012 7.99617 255 255 255
58.127 -4.01741 -14.5706 255 255 255
58.6031 -4.42959 -13.8163 255 255 255
68.5142 -10.959 6.32211 255 255 255
59.1896 -5.69305 -12.47 255 255 255
59.1896 -5.69305 -12.47 255 255 255
68.1592 -11.0448 5.8017 255 255 255
65.0352 -9.4835 -0.308498 255 255 255
66.9538 -10.7414 4.25769 255 255 255
-14.7677 5.04247 24.03 255 255 255
67.6298 -11.4146 4.36028 255 255 255
-6.09713 15.4733 -57.1435 255 255 255
5.55344 -2.36879 34.9805 255 255 255
64.2356 -10.4919 -4.74087 255 255 255
62.3353 -9.58414 -8.40622 255 255 255
68.0344 -13.0694 4.84105 255 255 255
68.0138 -13.0524 4.31341 255 255 255
62.5787 -9.67466 -10.2953 255 255 255
58.7461 -7.96722 -15.5579 255 255 255
65.5252 -12.1439 -0.769408 255 255 255
58.279 -8.26362 -17.4182 255 255 255
66.1254 -12.5478 -1.66651 255 255 255
58.101 -8.31431 -17.7979 255 255 255
2.55452 -3.29467 36.4113 255 255 255
57.4193 -8.15544 -20.3749 255 255 255
67.6193 -14.1029 2.36221 255 255 255
68.6894 -14.8683 3.65408 255 255 255
68.6894 -14.8683 3.65408 255 255 255
-12.6303 13.6219 -54.4176 255 255 255
66.4287 -13.4972 -2.81888 255 255 255
-13.8606 1.10242 29.2073 255 255 255
-8.92759 -0.915646 33.868 255 255 255
-8.71473 -0.997218 33.9944 255 255 255
58.6883 -10.2122 -17.2428 255 255 255
-8.44039 -1.46026 34.5949 255 255 255
-8.39596 -1.44687 34.4803 255 255 255
65.248 -14.1866 -4.1034 255 255 255
64.9528 -14.1795 -3.68958 255 255 255
-12.7385 -0.0806058 31.1708 255 255 255
-16.7685 1.5792 26.2793 255 255 255
10.6528 -6.60663 34.9684 255 255 255
-6.12922 -2.64746 36.0491 255 255 255
59.304 -11.1567 -17.1986 255 255 255
59.304 -11.1567 -17.1986 255 255 255
68.6301 -16.5671 4.26147 255 255 255
-10.3984 -1.31276 33.7275 255 255 255
-7.07893 -2.50428 35.8014 255 255 255
-7.07893 -2.50428 35.8014 255 255 255
57.2222 -10.2102 -22.3578 255 255 255
-8.24019 -2.33461 35.2493 255 255 255
-3.06504 -4.02539 37.3748 255 255 255
-15.0164 -0.0381686 29.5648 255 255 255
64.5221 -14.9291 -5.20092 255 255 255
65.0558 -15.0771 -4.71777 255 255 255
-13.3701 -0.719451 31.3622 255 255 255
-0.581895 -5.56303 38.2877 255 255 255
66.7906 -17.221 0.207734 255 255 255
69.3551 -18.4991 3.80409 255 255 255
69.3551 -18.4991 3.80413 255 255 255
67.2013 -17.5747 0.291267 255 255 255
-11.5645 -2.63124 34.175 255 255 255
59.6448 -13.454 -18.9179 255 255 255
63.4568 -15.7133 -8.9558 255 255 255
68.0281 -17.9835 -0.523944 255 255 255
-12.5828 -2.46864 33.434 255 255 255
62.9358 -15.6659 -9.73896 255 255 255
67.3148 -18.0526 -0.185774 255 255 255
-17.577 -0.470135 27.7727 255 255 255
-17.5819 -0.469861 27.7868 255 255 255
6.3549 -7.91396 37.7176 255 255 255
-13.525 -2.31432 32.5271 255 255 255
-13.5484 -2.30854 32.5857 255 255 255
63.0772 -16.472 -10.9826 255 255 255
67.1884 -18.9875 -2.10981 255 255 255
60.6834 -15.6704 -15.9835 255 255 255
-12.6925 -3.41698 33.8125 255 255 255
-5.20799 -6.0912 38.0852 255 255 255
61.8906 -16.5906 -14.613 255 255 255
62.0715 -16.5886 -14.8849 255 255 255
21.3237 -11.5978 26.4744 255 255 255
-12.8084 -3.95786 34.1549 255 255 255
67.7926 -20.2367 -0.566149 255 255 255
29.6875 -13.3748 22.3698 255 255 255
28.5264 -13.3704 22.6396 255 255 255
62.0834 -17.4568 -14.5001 255 255 255
63.0247 -18.0026 -11.9512 255 255 255
11.721 -10.8297 35.5737 255 255 255
21.4343 -12.3394 26.9517 255 255 255
-7.94122 -6.2014 37.4049 255 255 255
-21.5532 0.406734 11.3469 255 255 255
63.2416 -18.6998 -11.6523 255 255 255
-6.25755 -6.96031 38.1959 255 255 255
-3.69356 -7.71767 38.7456 255 255 255
63.355 -19.0174 -11.8283 255 255 255
-25.0465 1.69187 3.577 255 255 255
69.1796 -22.407 -1.40517 255 255 255
-21.9555 -0.47025 12.6587 255 255 255
-11.3975 -6.25046 36.225 255 255 255
-27.4375 6.56813 -46.0771 255 255 255
-27.4375 6.56813 -46.0771 255 255 255
10.3326 -12.5823 35.6216 255 255 255
-23.1376 -1.55593 13.8381 255 255 255
-13.3923 -6.65826 35.0776 255 255 255
-9.32299 -8.02585 37.5369 255 255 255
-13.5631 -6.75321 35.0316 255 255 255
-23.6644 -1.94422 14.3218 255 255 255
-26.4034 -0.463606 6.50177 255 255 255
-23.5752 -2.17014 14.6513 255 255 255
-24.5999 -2.0595 14.327 255 255 255
-22.031 -4.0695 24.2883 255 255 255
-7.65699 -9.33536 38.5849 255 255 255
-14.0206 -7.33256 35.1196 255 255 255
-10.8175 -8.68426 37.2582 255 255 255
69.2379 -25.9531 -3.19303 255 255 255
69.6133 -26.4774 -2.77797 255 255 255
69.6133 -26.4774 -2.77797 255 255 255
-30.0183 -0.936364 7.25073 255 255 255
-30.0106 -0.940753 7.22488 255 255 255
-6.42769 -10.5385 39.2243 255 255 255
-6.04752 -10.81 39.5308 255 255 255
-25.2511 -3.33599 15.9462 255 255 255
25.6332 -18.2948 29.3754 255 255 255
-19.682 -6.21048 29.1739 255 255 255
-5.48668 -11.0676 39.5403 255 255 255
-26.6035 -2.51637 9.34625 255 255 255
-16.6336 -7.54133 33.1842 255 255 255
-9.85217 -9.90002 37.9092 255 255 255
-14.6244 -8.42961 34.9975 255 255 255
-29.8572 -1.85242 8.27541 255 255 255
-7.4107 -10.8957 39.1065 255 255 255
-7.4107 -10.8957 39.1065 255 255 255
-15.0458 -8.65909 34.7854 255 255 255
11.4048 -16.0202 35.3568 255 255 255
-0.580685 -13.5017 39.8906 255 255 255
-9.37815 -11.3035 38.4247 255 255 255
7.48931 -15.8581 37.9661 255 255 255
-8.69484 -11.7211 38.8077 255 255 255
-8.69484 -11.7211 38.8077 255 255 255
-3.02182 -13.3575 39.914 255 255 255
-11.3079 -11.1374 38.2962 255 255 255
0.00153288 -14.4101 39.7172 255 255 255
-12.3619 -10.9221 36.859 255 255 255
-22.2245 -7.63672 26.3849 255 255 255
-22.2245 -7.63672 26.3849 255 255 255
1.91665 -15.4305 39.5319 255 255 255
1.91665 -15.4305 39.5319 255 255 255
-6.01495 -13.2943 39.528 255 255 255
-23.0618 -7.41014 24.5345 255 255 255
15.5859 -18.9071 35.3599 255 255 255
-7.3854 -13.0354 39.4144 255 255 255
25.277 -21.4974 33.1095 255 255 255
-11.3982 -11.9463 38.1953 255 255 255
-20.9876 -8.98015 28.8811 255 255 255
-5.62751 -14.0849 39.3309 255 255 255
-4.37795 -14.457 39.6468 255 255 255
-25.8565 -7.05706 20.9219 255 255 255
-17.3394 -10.5191 33.7678 255 255 255
14.1986 -19.9162 36.8363 255 255 255
-12.9312 -12.398 36.5762 255 255 255
-12.8591 -12.5742 37.3151 255 255 255
-10.7614 -13.4202 38.0044 255 255 255
-20.1764 -10.4416 30.5423 255 255 255
3.11325 -17.5913 38.9968 255 255 255
-11.3782 -13.5667 37.8953 255 255 255
-24.2816 -9.04585 23.7878 255 255 255
-31.4644 -6.43983 14.2504 255 255 255
13.1478 -20.6338 37.7763 255 255 255
-3.88979 -16.1498 39.6516 255 255 255
-1.78298 -16.7258 39.6261 255 255 255
-1.73541 -16.7464 39.5408 255 255 255
15.2593 -21.2625 35.9593 255 255 255
12.5688 -20.7967 37.9823 255 255 255
21.5203 -23.226 35.742 255 255 255
-20.8198 -11.133 29.5905 255 255 255
6.11965 -19.2861 37.7237 255 255 255
-17.852 -12.3989 33.3475 255 255 255
18.5987 -22.77 35.0542 255 255 255
-22.039 -11.1962 27.8731 255 255 255
18.3591 -23.096 35.5338 255 255 255
-33.4503 -7.169 15.0171 255 255 255
-16.3986 -13.3239 34.706 255 255 255
-32.5085 -7.98599 16.4583 255 255 255
-32.4581 -7.9771 16.2486 255 255 255
-6.54262 -16.8082 39.1073 255 255 255
3.18773 -19.5761 38.5542 255 255 255
4.39863 -19.8557 38.1152 255 255 255
1.20117 -19.8017 38.7245 255 255 255
-24.6776 -11.7846 27.3849 255 255 255
-14.7594 -15.1246 36.4369 255 255 255
-0.365739 -19.3806 38.9185 255 255 255
-29.7276 -10.0013 19.0667 255 255 255
-18.9601 -14.5851 32.7785 255 255 255
-18.9601 -14.5851 32.7785 255 255 255
-18.3787 -15.5859 33.239 255 255 255
17.6912 -26.4586 39.8637 255 255 255
-13.0713 -17.6806 36.498 255 255 255
-15.1294 -17.4583 34.9965 255 255 255
-18.047 -16.658 33.3698 255 255 255
-26.0533 -14.1073 27.4125 255 255 255
-17.8669 -17.3535 34.4714 255 255 255
1.01805 -23.1697 41.0907 255 255 255
0.675681 -23.211 41.0875 255 255 255
-21.7272 -16.3915 33.047 255 255 255
0.12385 -23.1971 41.2474 255 255 255
-1.39323 -22.8259 40.9532 255 255 255
-16.5831 -18.2241 35.4448 255 255 255
-16.5831 -18.2241 35.4448 255 255 255
-32.2687 -13.3925 23.0628 255 255 255
-16.9471 -18.6974 35.9901 255 255 255
11.3958 -27.3447 40.7709 255 255 255
14.6144 -28.3414 39.4499 255 255 255
3.05691 -25.3509 40.3298 255 255 255
3.05691 -25.3509 40.3298 255 255 255
8.82466 -27.0711 40.5009 255 255 255
-32.3659 -14.4639 24.9461 255 255 255
-30.8514 -15.0209 25.594 255 255 255
17.1707 -29.733 38.8398 255 255 255
17.1707 -29.733 38.8398 255 255 255
-33.1285 -14.6988 25.0392 255 255 255
-17.5808 -19.7598 37.0718 255 255 255
-31.0609 -15.4869 26.391 255 255 255
-31.7073 -15.488 26.0955 255 255 255
-19.7376 -19.4106 35.3375 255 255 255
-12.0536 -21.8668 39.5037 255 255 255
-13.0452 -21.587 39.3974 255 255 255
6.50411 -27.7334 41.2567 255 255 255
-7.48193 -23.6385 40.7769 255 255 255
-7.48193 -23.6385 40.7769 255 255 255
-28.9618 -16.9524 28.0856 255 255 255
-30.8636 -16.4425 27.6574 255 255 255
-28.9769 -17.1455 28.4376 255 255 255
-31.475 -16.3936 27.4353 255 255 255
8.08519 -28.7132 42.6526 255 255 255
-6.00117 -24.4633 41.0976 255 255 255
-30.1678 -17.6354 29.0509 255 255 255
-10.8114 -23.689 39.4428 255 255 255
-9.5465 -24.1624 39.7979 255 255 255
-9.5465 -24.1624 39.7979 255 255 255
3.69152 -28.2036 41.9876 255 255 255
-11.256 -23.7963 39.2575 255 255 255
3.37394 -29.148 43.2378 255 255 255
6.18082 -30.2587 44.665 255 255 255
6.18082 -30.2587 44.665 255 255 255
-28.2826 -19.796 31.5829 255 255 255
-22.4176 -21.8902 34.3982 255 255 255
0.485892 -29.1887 43.1703 255 255 255
17.3461 -34.6348 34.6675 255 255 255
16.2329 -34.3115 34.0018 255 255 255
-29.6005 -20.3031 29.252 255 255 255
-22.831 -22.6213 35.2865 255 255 255
-1.99676 -29.2475 43.5187 255 255 255
-7.03426 -27.7202 41.5571 255 255 255
-28.3874 -21.121 33.5353 255 255 255
-25.2815 -22.0954 34.6099 255 255 255
-3.97761 -28.7363 42.8253 255 255 255
-0.383085 -30.0367 43.787 255 255 255
-19.3778 -24.2018 37.3748 255 255 255
-3.42946 -29.2858 43.475 255 255 255
-21.8475 -23.5883 36.5767 255 255 255
-17.4101 -24.9804 38.3232 255 255 255
-4.89369 -28.9023 42.9365 255 255 255
-28.1168 -21.7806 34.0915 255 255 255
-10.2227 -27.3316 41.1649 255 255 255
-29.1256 -21.5705 34.102 255 255 255
-2.21794 -30.1422 43.5974 255 255 255
-0.0676554 -31.1096 42.6817 255 255 255
-8.98283 -28.4797 42.6713 255 255 255
-8.01845 -28.955 43.3396 255 255 255
-16.9508 -26.215 39.7509 255 255 255
-11.7675 -27.8237 41.753 255 255 255
-3.11861 -30.7856 43.0363 255 255 255
-16.0283 -26.8637 40.6537 255 255 255
-16.9977 -26.5694 40.3537 255 255 255
-11.6624 -28.4255 42.5792 255 255 255
-12.8713 -28.0818 42.1323 255 255 255
1.26099 -32.6567 41.3488 255 255 255
9.85016 -36.0702 36.0274 255 255 255
9.85016 -36.0702 36.0274 255 255 255
-19.0033 -26.8387 40.3651 255 255 255
-1.63168 -32.7287 41.4449 255 255 255
-1.64922 -32.7009 41.5079 255 255 255
18.5065 -40.0666 29.9632 255 255 255
-14.5461 -29.1849 40.8472 255 255 255
17.8472 -39.9247 30.54 255 255 255
-13.6096 -29.5542 40.9159 255 255 255
-4.7545 -32.6531 41.6389 255 255 255
-4.7545 -32.6531 41.6389 255 255 255
-3.01934 -33.3086 41.1667 255 255 255
-12.5089 -30.3342 40.8263 255 255 255
-3.05909 -33.7717 40.6534 255 255 255
14.7059 -40.0714 30.7346 255 255 255
-12.3357 -31.2745 40.1352 255 255 255
-11.8797 -31.6439 40.0925 255 255 255
-3.99676 -34.1547 40.4709 255 255 255
-24.4683 -27.9703 32.2817 255 255 255
-7.61321 -34.0891 40.6747 255 255 255
-14.1467 -32.0865 38.3634 255 255 255
-12.0509 -33.0868 38.5697 255 255 255
0.14958 -37.5433 37.6289 255 255 255
0.383936 -38.1596 37.3931 255 255 255
-8.45018 -35.2227 38.9689 255 255 255
-8.2469 -35.4557 38.8022 255 255 255
0.361441 -38.7646 36.9618 255 255 255
-11.8927 -34.7141 37.1605 255 255 255
-0.936619 -39.2752 37.075 255 255 255
-0.936624 -39.2752 37.075 255 255 255
-2.75057 -38.8886 36.882 255 255 255
-14.8387 -35.501 35.4822 255 255 255
-15.5121 -35.5049 35.0781 255 255 255
-24.2075 -33.6173 29.4408 255 255 255
-23.9017 -34.0703 29.9429 255 255 255
-13.1656 -37.3819 35.2805 255 255 255
4.52374 -43.6393 33.5152 255 255 255
2.87703 -43.0166 34.0174 255 255 255
-13.4943 -37.6326 35.2831 255 255 255
1.26143 -42.9441 34.1057 255 255 255
-13.5733 -37.9223 35.3349 255 255 255
-25.1081 -34.7243 27.2873 255 255 255
-20.2376 -37.6352 30.158 255 255 255
-26.5959 -36.0195 24.8081 255 255 255
-20.6895 -37.9923 29.0262 255 255 255
-15.5732 -40.0212 31.7179 255 255 255
-29.6629 -37.3391 20.9787 255 255 255
4.07511 -50.5358 33.8899 255 255 255
-31.7562 -41.7037 22.7347 255 255 255
-58.7896 -34.8109 6.11715 255 255 255
-58.1184 -35.2021 6.78998 255 255 255
-8.98421 -49.5442 35.451 255 255 255
-6.87487 -50.6567 34.5415 255 255 255
-10.1776 -49.7898 34.1691 255 255 255
-9.47185 -50.1867 34.1926 255 255 255
-10.1545 -50.4817 33.9636 255 255 255
-10.5949 -50.3474 34.22 255 255 255
-13.0713 -50.1699 32.7676 255 255 255
-9.99925 -51.2895 33.9963 255 255 255
-9.99925 -51.2895 33.9963 255 255 255
-20.0088 -48.5554 30.5198 255 255 255
-49.3034 -40.681 13.8346 255 255 255
-49.5841 -40.6653 13.5634 255 255 255
14.5854 -61.2728 40.3544 255 255 255
-44.9775 -44.5139 19.0157 255 255 255
-36.5427 -46.9663 24.2513 255 255 255
-35.8819 -47.5521 24.7823 255 255 255
-35.2483 -47.6978 25.2243 255 255 255
-31.4718 -49.9296 28.2207 255 255 255
-41.6596 -47.9929 23.4911 255 255 255
6.93396 -63.3823 42.9904 255 255 255
7.06037 -63.4846 42.7561 255 255 255
-1.31518 -60.9447 39.5687 255 255 255
-1.89334 -61.0896 40.2028 255 255 255
-4.24564 -60.6044 39.4996 255 255 255
10.3469 -66.2634 46.8156 255 255 255
14.5237 -68.1532 49.263 255 255 255
-41.0837 -50.7558 26.7413 255 255 255
-4.48898 -62.3951 41.4623 255 255 255
-44.02 -50.2021 25.7645 255 255 255
-44.02 -50.2021 25.7645 255 255 255
-31.9782 -53.9839 31.3056 255 255 255
-42.8635 -50.7744 26.603 255 255 255
-32.2717 -54.0125 31.3381 255 255 255
5.92432 -66.3616 46.936 255 255 255
10.9533 -68.355 49.5366 255 255 255
4.31217 -66.4438 47.1263 255 255 255
-43.0478 -52.0945 28.4397 255 255 255
5.41905 -67.7748 48.9019 255 255 255
7.10871 -68.359 49.6637 255 255 255
-27.1772 -57.6298 35.4679 255 255 255
-54.4786 -49.6815 25.443 255 255 255
9.65709 -70.1033 51.4313 255 255 255
5.00673 -69.0082 50.0675 255 255 255
-33.7504 -56.8815 34.5454 255 255 255
-7.44925 -65.3772 45.195 255 255 255
-7.68778 -65.9837 45.9949 255 255 255
-56.4458 -50.7935 26.9337 255 255 255
-44.0724 -54.8809 31.9151 255 255 255
-15.7686 -63.9707 44.0934 255 255 255
4.04881 -71.5996 53.5342 255 255 255
-7.95514 -68.3217 49.1613 255 255 255
-6.47307 -69.6127 50.7577 255 255 255
-18.4096 -68.6347 49.367 255 255 255
-43.1713 -61.7214 40.5379 255 255 255
-32.7873 -65.1958 44.8469 255 255 255
-33.1299 -65.3105 45.4727 255 255 255
-10.5852 95.4986 -51.5611 255 255 255
-10.5852 95.4986 -51.5611 255 255 255
75.2721 106.75 -97.116 255 255 255
61.8476 64.9292 -6.66454 255 255 255
47.9172 99.2171 -86.397 255 255 255
72.3184 101.441 -99.1752 255 255 255
66.5144 58.1753 -1.63374 255 255 255
33.7773 95.4827 -79.8967 255 255 255
66.5231 98.5177 -98.4838 255 255 255
61.7055 59.871 -12.093 255 255 255
82.8992 98.6629 -108.325 255 255 255
28.3069 92.3744 -79.3886 255 255 255
57.7466 45.2423 18.8596 255 255 255
82.7229 96.3711 -109.472 255 255 255
62.8698 56.3459 -9.78562 255 255 255
27.7744 90.8415 -80.907 255 255 255
13.1166 88.8942 -71.9835 255 255 255
58.7634 60.1611 -19.3171 255 255 255
56.2722 44.5879 17.0918 255 255 255
39.5346 90.0386 -88.1933 255 255 255
55.8795 44.221 14.9524 255 255 255
31.0504 87.4709 -83.959 255 255 255
59.0948 57.3291 -21.6721 255 255 255
54.2728 88.8483 -98.0804 255 255 255
-1.17513 83.813 -66.9907 255 255 255
56.7172 58.5117 -24.9162 255 255 255
64.9128 50.5484 -7.93431 255 255 255
85.0446 90.1581 -115.968 255 255 255
62.7457 36.1883 26.8822 255 255 255
79.7369 89.6314 -113.67 255 255 255
74.1317 88.1629 -109.017 255 255 255
6.4311 82.3807 -70.8421 255 255 255
-21.1806 80.0965 -56.1316 255 255 255
58.6943 38.8981 19.0658 255 255 255
58.6943 38.8981 19.0658 255 255 255
61.8973 87.1424 -104.557 255 255 255
29.2056 83.2005 -85.9994 255 255 255
60.0104 53.0686 -20.7787 255 255 255
-0.503553 79.471 -70.3479 255 255 255
-16.1921 77.6775 -59.8127 255 255 255
56.8177 38.6839 13.2855 255 255 255
50.2344 82.4039 -98.5727 255 255 255
55.9493 39.6973 10.2594 255 255 255
17.3147 80.2374 -81.2964 255 255 255
57.4554 38.166 13.3182 255 255 255
59.1948 36.4024 16.7606 255 255 255
58.8944 81.6776 -104.424 255 255 255
54.4674 80.6406 -103.872 255 255 255
50.092 79.3103 -100.212 255 255 255
51.817 79.3656 -101.305 255 255 255
58.2749 50.667 -27.3228 255 255 255
50.7956 79.2643 -101.63 255 255 255
50.0797 79.0451 -101.221 255 255 255
51.0551 78.7051 -101.23 255 255 255
59.0905 33.3591 16.9426 255 255 255
55.2545 36.741 7.46727 255 255 255
61.8145 30.6166 21.386 255 255 255
54.9663 76.7451 -104.363 255 255 255
58.504 31.8154 17.7125 255 255 255
58.5039 31.8154 17.7126 255 255 255
60.4702 31.0706 18.5792 255 255 255
69.7368 77.1203 -115.321 255 255 255
58.7305 32.0465 14.8053 255 255 255
32.824 74.3549 -93.0115 255 255 255
-2.28933 72.6538 -72.7452 255 255 255
56.1468 34.2111 8.83404 255 255 255
60.402 75.335 -110.867 255 255 255
59.5787 30.7778 15.2783 255 255 255
60.1953 30.1775 16.0423 255 255 255
61.8004 28.6642 19.1051 255 255 255
61.2204 29.0045 18.1183 255 255 255
59.5133 29.7267 14.8368 255 255 255
58.7776 45.1511 -29.9803 255 255 255
-13.1407 69.6695 -68.4896 255 255 255
40.2935 71.8203 -100.619 255 255 255
6.90283 70.3915 -81.4366 255 255 255
66.2763 36.2569 -15.4653 255 255 255
-1.54517 68.0472 -77.3824 255 255 255
60.0322 27.1079 13.2008 255 255 255
56.2727 29.3114 6.0522 255 255 255
55.0124 30.4388 2.8624 255 255 255
59.5262 26.0459 11.8605 255 255 255
19.2408 66.0688 -91.3496 255 255 255
59.7939 25.4547 11.0037 255 255 255
-1.11679 65.3357 -80.3912 255 255 255
57.3422 26.7846 6.53707 255 255 255
57.2641 26.7556 6.60839 255 255 255
59.9604 24.3721 11.9542 255 255 255
59.9604 24.3721 11.9542 255 255 255
17.3728 64.2797 -91.2492 255 255 255
59.1071 24.7428 9.58195 255 255 255
59.5543 23.825 10.4231 255 255 255
62.5291 34.7223 -26.455 255 255 255
81.1079 57.5185 -110.974 255 255 255
62.7845 34.133 -25.9433 255 255 255
42.4663 63.5733 -109.737 255 255 255
-21.5794 62.1687 -68.5838 255 255 255
-21.5794 62.1687 -68.5838 255 255 255
57.5079 24.254 6.00184 255 255 255
-4.80493 61.5206 -79.5687 255 255 255
35.358 61.3885 -104.679 255 255 255
-19.0215 60.3764 -72.0353 255 255 255
60.3349 34.0967 -33.1821 255 255 255
-17.8432 59.6639 -72.5015 255 255 255
-17.8432 59.6639 -72.5014 255 255 255
55.28 24.1543 -1.20734 255 255 255
55.113 24.1889 -2.49126 255 255 255
-19.2399 57.7954 -73.071 255 255 255
-23.2425 56.7863 -71.407 255 255 255
-18.5708 55.0272 -69.558 255 255 255
-8.98603 54.9303 -81.4661 255 255 255
-6.98374 54.9364 -84.0861 255 255 255
54.3385 20.5725 -4.84487 255 255 255
-10.0773 54.5916 -82.5652 255 255 255
57.0678 18.576 0.347321 255 255 255
55.8013 31.3063 -45.3531 255 255 255
61.7159 14.8946 8.66274 255 255 255
58.9758 16.0398 3.30885 255 255 255
59.5427 15.8493 3.27335 255 255 255
59.7336 14.9065 4.37744 255 255 255
60.609 14.6414 4.72732 255 255 255
58.5101 26.9615 -42.4374 255 255 255
60.3981 24.59 -37.0065 255 255 255
59.2106 14.1161 2.62622 255 255 255
55.3206 17.2271 -6.6363 255 255 255
58.8173 14.4367 0.259329 255 255 255
58.8849 13.4914 2.63916 255 255 255
57.4319 25.9431 -47.5767 255 255 255
57.4319 25.9431 -47.5767 255 255 255
64.2774 9.41128 11.4851 255 255 255
-4.30527 48.7183 -89.8492 255 255 255
60.5297 11.7368 3.75131 255 255 255
63.8369 20.1719 -32.6141 255 255 255
55.7547 26.0963 -51.1 255 255 255
56.5645 25.3292 -49.841 255 255 255
-16.4796 47.354 -81.6682 255 255 255
22.8584 37.8821 -83.2067 255 255 255
-1.65198 45.3169 -93.2103 255 255 255
57.0117 21.7544 -50.8254 255 255 255
21.9222 36.5211 -82.3363 255 255 255
59.998 8.82587 -0.405896 255 255 255
60.4379 8.36804 -0.101692 255 255 255
17.6982 36.9102 -84.1442 255 255 255
17.6982 36.9102 -84.1441 255 255 255
-25.2566 44.5847 -79.1989 255 255 255
-25.9568 44.6689 -79.4287 255 255 255
-25.9936 44.634 -79.2939 255 255 255
56.4112 20.7334 -52.8944 255 255 255
61.9146 6.33465 4.11084 255 255 255
56.8374 20.3172 -51.9604 255 255 255
-27.7405 44.1018 -79.3569 255 255 255
6.74997 33.3033 -80.2935 255 255 255
63.2424 12.1735 -39.5617 255 255 255
55.7965 7.56091 -11.6138 255 255 255
59.4 3.52002 -4.34798 255 255 255
59.4 3.52001 -4.34791 255 255 255
-23.7761 38.723 -84.3618 255 255 255
38.5714 19.594 -62.4812 255 255 255
60.1996 2.08671 -5.19254 255 255 255
58.5548 2.50966 -7.93028 255 255 255
8.99816 24.0329 -67.8486 255 255 255
5.85647 24.9227 -69.5527 255 255 255
8.30546 23.7699 -67.6193 255 255 255
6.89572 23.2799 -66.6088 255 255 255
62.3217 -1.93219 -2.51265 255 255 255
66.753 -5.61968 7.44938 255 255 255
55.3259 1.67658 -18.4939 255 255 255
55.2883 1.66787 -18.4656 255 255 255
-19.8492 28.914 -74.1743 255 255 255
1.0148 22.0424 -65.5849 255 255 255
-8.5373 6.93035 24.5841 255 255 255
-1.70015 21.4614 -65.3399 255 255 255
62.1752 -4.62633 -4.37655 255 255 255
-1.43058 19.8099 -62.6692 255 255 255
67.4389 -8.63497 5.87659 255 255 255
67.6211 -8.59795 5.6412 255 255 255
2.96534 17.9387 -60.1195 255 255 255
59.2299 -3.74474 -12.1208 255 255 255
56.8263 -2.75683 -17.6148 255 255 255
-12.9367 6.2763 22.721 255 255 255
61.4228 -6.59612 -7.49813 255 255 255
58.238 -5.9795 -16.6803 255 255 255
-11.6988 17.7747 -59.7216 255 255 255
65.6466 -10.8641 -0.11065 255 255 255
65.5616 -11.0982 -0.43671 255 255 255
65.2922 -11.0491 -0.0867807 255 255 255
67.6762 -12.2242 3.40233 255 255 255
67.6762 -12.2242 3.40233 255 255 255
68.5317 -13.6028 5.63034 255 255 255
58.8275 -8.36126 -15.9167 255 255 255
-15.3993 2.65633 26.4006 255 255 255
-16.7061 15.4534 -56.4075 255 255 255
-16.0963 2.34465 26.0192 255 255 255
59.3263 -10.3269 -15.6588 255 255 255
58.8644 -10.1005 -16.8295 255 255 255
68.1307 -15.6532 1.83763 255 255 255
66.6444 -15.1061 -1.2459 255 255 255
67.0064 -16.1555 -1.26377 255 255 255
-18.3126 3.79367 7.23298 255 255 255
-18.3126 3.79367 7.23297 255 255 255
66.6023 -16.5189 -0.784941 255 255 255
-18.7107 3.6043 7.04596 255 255 255
-18.3299 3.50269 6.81099 255 255 255
3.30654 -6.94678 38.8876 255 255 255
-20.4872 10.6874 -50.1109 255 255 255
-22.4732 3.89789 0.802009 255 255 255
65.3697 -17.812 -6.12414 255 255 255
-9.05907 -4.75132 36.5483 255 255 255
-20.7987 1.14552 10.3368 255 255 255
-21.0547 0.843035 10.7187 255 255 255
-1.79314 -7.85343 39.2695 255 255 255
-22.4042 0.934952 10.3968 255 255 255
-25.8819 2.71219 2.46694 255 255 255
68.1001 -21.0722 -0.842964 255 255 255
-7.77351 -6.43633 37.7332 255 255 255
67.3394 -20.8823 -3.92505 255 255 255
28.1979 -14.3328 23.139 255 255 255
-12.8404 -5.13965 34.7122 255 255 255
6.64823 -10.7854 38.0255 255 255 255
-4.38782 -8.25302 39.0222 255 255 255
4.09644 -10.5865 38.7974 255 255 255
69.1998 -23.0889 0.223874 255 255 255
3.87668 -10.8587 39.3092 255 255 255
-0.499161 -9.78925 39.5167 255 255 255
-12.7234 -6.91273 35.8604 255 255 255
-28.3483 -0.232013 6.2935 255 255 255
-8.42606 -9.11443 38.3719 255 255 255
-22.8571 -2.95852 15.8235 255 255 255
68.9079 -25.6945 -3.03921 255 255 255
-10.5819 -8.79493 37.2778 255 255 255
-10.2331 -8.98578 37.8603 255 255 255
-9.59869 -9.2423 37.9638 255 255 255
-23.5147 -3.42612 16.1856 255 255 255
-26.6199 -2.22025 9.11297 255 255 255
-26.8645 -2.3758 8.82634 255 255 255
-10.8373 -9.50599 37.4041 255 255 255
-10.8373 -9.50599 37.4041 255 255 255
4.13663 -13.8068 39.2408 255 255 255
4.11677 -14.4167 39.115 255 255 255
-30.4865 -3.03875 9.94175 255 255 255
-24.6374 -6.60866 20.4479 255 255 255
-21.8627 -7.964 27.4369 255 255 255
-22.3909 -7.88348 26.1441 255 255 255
-23.0325 -7.72936 23.9492 255 255 255
-15.9558 -11.1245 34.6275 255 255 255
-26.4865 -7.55831 21.5936 255 255 255
-21.9217 -9.84338 27.4532 255 255 255
-21.9776 -9.84883 27.6455 255 255 255
-15.7138 -12.0826 34.7914 255 255 255
2.715 -17.7393 39.1414 255 255 255
-14.5629 -12.7524 35.7383 255 255 255
12.7434 -20.538 37.7447 255 255 255
-31.1146 -6.84815 15.0626 255 255 255
-29.0994 -7.73778 16.0317 255 255 255
-23.1628 -10.6258 25.8081 255 255 255
-13.4219 -14.1169 36.7565 255 255 255
-20.5546 -11.7406 30.032 255 255 255
3.11732 -19.1155 38.7141 255 255 255
0.429131 -18.6084 39.3586 255 255 255
-13.5705 -14.538 36.6979 255 255 255
-22.9319 -11.2686 26.4951 255 255 255
-23.3629 -11.7216 27.2863 255 255 255
-17.3687 -14.0828 34.1374 255 255 255
-5.4488 -17.9765 38.9847 255 255 255
-27.4269 -11.0485 23.5153 255 255 255
-3.89383 -19.8489 38.8637 255 255 255
-6.89444 -19.4749 38.7049 255 255 255
-16.4297 -16.6487 34.3216 255 255 255
-35.2016 -8.7934 -25.5021 255 255 255
-8.23825 -20.2014 38.169 255 255 255
-18.1325 -17.3862 34.4522 255 255 255
-32.9572 -12.6127 22.455 255 255 255
3.15133 -23.955 41.041 255 255 255
12.9115 -26.8729 40.4406 255 255 255
-1.78434 -23.0139 41.229 255 255 255
-15.5623 -18.9538 36.2471 255 255 255
17.3645 -28.8847 39.2815 255 255 255
-21.4478 -17.252 34.0684 255 255 255
-16.2141 -19.0765 36.6421 255 255 255
-12.1065 -20.7371 38.6832 255 255 255
-6.8762 -22.4843 40.4241 255 255 255
-33.3607 -14.3064 24.3501 255 255 255
2.84908 -25.6168 40.304 255 255 255
-10.839 -21.6382 39.5906 255 255 255
17.1616 -30.1379 38.4136 255 255 255
3.332 -26.0668 40.0685 255 255 255
15.1774 -29.7551 38.1837 255 255 255
-17.6642 -20.0057 36.9583 255 255 255
-8.33437 -23.2713 40.4485 255 255 255
-29.1879 -16.8841 27.7918 255 255 255
-21.0318 -19.5862 34.0894 255 255 255
-40.4917 -13.5171 -20.3259 255 255 255
-11.8767 -23.1766 39.2233 255 255 255
15.3237 -32.0223 36.0853 255 255 255
5.99617 -29.3699 44.0792 255 255 255
5.23044 -29.722 43.9818 255 255 255
5.57367 -29.8594 44.0593 255 255 255
13.4522 -32.5728 36.8826 255 255 255
-29.3675 -20.0184 30.7805 255 255 255
-26.3339 -21.6119 34.1827 255 255 255
-22.8794 -23.3504 36.1809 255 255 255
-10.3599 -27.2853 40.7572 255 255 255
-14.8274 -26.3946 39.6195 255 255 255
-2.3364 -30.3554 43.4039 255 255 255
-22.8951 -24.0529 37.2121 255 255 255
0.845722 -32.3711 41.7082 255 255 255
-15.7137 -27.3378 41.3462 255 255 255
0.317239 -32.912 41.2849 255 255 255
12.7865 -37.2055 34.2154 255 255 255
-27.4866 -24.4464 31.7484 255 255 255
-0.481323 -33.0487 41.1666 255 255 255
13.5764 -37.8811 32.7249 255 255 255
-19.2493 -27.2646 41.2715 255 255 255
-3.31503 -32.6499 41.6229 255 255 255
0.24894 -34.0413 40.3284 255 255 255
4.47491 -35.8093 38.9094 255 255 255
-15.5521 -30.4117 39.204 255 255 255
-22.3697 -28.503 34.5698 255 255 255
-14.9778 -30.8185 39.1428 255 255 255
-15.9111 -30.6311 38.7577 255 255 255
-15.9111 -30.6311 38.7577 255 255 255
-12.4729 -32.8732 38.7376 255 255 255
-12.4729 -32.8732 38.7376 255 255 255
-2.98006 -36.0954 38.7148 255 255 255
-17.0525 -31.6696 37.1689 255 255 255
-30.7072 -28.8231 22.1933 255 255 255
-20.2372 -32.2653 34.232 255 255 255
-28.2355 -29.9899 27.7605 255 255 255
-0.445009 -39.0346 36.6765 255 255 255
-0.954451 -39.0862 37.2005 255 255 255
-28.2611 -30.504 27.4239 255 255 255
-27.851 -30.8802 26.7139 255 255 255
0.223834 -39.7429 36.6698 255 255 255
-30.0922 -30.5653 21.7844 255 255 255
-13.5115 -35.7806 35.9357 255 255 255
-14.4972 -35.5936 35.4144 255 255 255
-24.3487 -32.9148 29.6294 255 255 255
-24.3162 -32.9196 29.5297 255 255 255
-1.68697 -40.2746 36.1568 255 255 255
-55.9935 -25.3792 -5.55645 255 255 255
4.64188 -43.0775 35.2251 255 255 255
-14.8689 -36.6938 34.6554 255 255 255
-20.7679 -35.1221 31.1782 255 255 255
-3.5541 -41.1929 35.3067 255 255 255
-11.7853 -38.5113 35.4093 255 255 255
-53.5544 -27.7433 -2.8402 255 255 255
-23.7205 -35.5945 28.6333 255 255 255
-23.7847 -35.5493 28.9039 255 255 255
-13.1872 -38.8299 34.4377 255 255 255
-3.87442 -42.5609 34.2564 255 255 255
5.78387 -47.4753 31.5276 255 255 255
-16.9418 -39.8161 31.1557 255 255 255
-26.3207 -37.7121 23.5881 255 255 255
-9.23271 -44.2161 32.2911 255 255 255
-8.26389 -45.3999 31.9712 255 255 255
-5.08633 -46.637 36.2351 255 255 255
-17.3998 -43.5499 28.6018 255 255 255
-30.5177 -40.4573 25.1959 255 255 255
-32.1803 -40.4478 23.7606 255 255 255
-8.95735 -47.8389 36.8391 255 255 255
-52.4508 -36.6363 8.8578 255 255 255
-21.4877 -45.1549 32.6255 255 255 255
-57.8684 -35.617 7.33245 255 255 255
-9.69597 -49.8557 34.3419 255 255 255
-9.19329 -50.2083 34.5901 255 255 255
-11.0639 -50.1847 32.71 255 255 255
-21.5349 -47.2652 30.9189 255 255 255
-8.745 -51.5688 34.4996 255 255 255
-9.00959 -51.85 34.0188 255 255 255
-20.6959 -48.5687 30.5228 255 255 255
-21.6707 -48.3371 29.9539 255 255 255
-20.9895 -48.5538 30.1474 255 255 255
-20.9895 -48.5538 30.1474 255 255 255
14.7133 -61.6093 40.6511 255 255 255
-35.5126 -47.558 24.7828 255 255 255
9.51026 -62.2574 41.3948 255 255 255
8.15345 -62.0406 41.2766 255 255 255
-14.0234 -55.8255 35.9134 255 255 255
-47.7054 -46.2736 21.1238 255 255 255
-42.4104 -49.2635 25.0439 255 255 255
7.58907 -65.8438 45.9046 255 255 255
-47.6863 -48.5303 23.8149 255 255 255
-43.6067 -50.212 25.7924 255 255 255
13.2325 -68.7594 49.8956 255 255 255
-44.6544 -50.5417 26.288 255 255 255
-3.84681 -63.7253 43.4539 255 255 255
9.30451 -68.0875 49.3291 255 255 255
6.74993 -68.1276 49.475 255 255 255
0.224653 -66.4266 46.4495 255 255 255
7.40449 -68.841 49.8556 255 255 255
-11.4927 -62.8513 42.1451 255 255 255
-3.03278 -66.4284 46.6913 255 255 255
-2.05848 -66.9623 47.1311 255 255 255
-4.60553 -66.5167 47.1838 255 255 255
-4.47139 -66.6526 46.9004 255 255 255
5.00665 -69.788 51.1732 255 255 255
2.97765 -69.4324 50.6998 255 255 255
-8.99338 -65.7183 45.8231 255 255 255
2.43831 -69.5151 50.8013 255 255 255
-8.71488 -66.0355 46.049 255 255 255
-32.9607 -58.6859 36.7563 255 255 255
-19.1155 -63.0564 42.6339 255 255 255
3.26307 -70.322 51.8484 255 255 255
-4.79154 -67.7631 48.4416 255 255 255
-42.9313 -55.6788 32.994 255 255 255
-35.0741 -58.6114 37.1563 255 255 255
-34.0988 -59.1653 37.7711 255 255 255
-33.4911 -59.5064 37.9665 255 255 255
-1.75327 -69.9006 51.0891 255 255 255
-10.4247 -67.5236 47.9748 255 255 255
-22.7379 -63.6469 42.9011 255 255 255
3.54284 -72.3416 54.4107 255 255 255
-22.056 -67.2251 47.3576 255 255 255
-18.7493 -68.277 48.9002 255 255 255
-28.8381 -65.4589 45.2957 255 255 255
-40.5076 -64.6703 43.9505 255 255 255
-3.54407 98.1583 -54.4388 255 255 255
76.6945 110.236 -98.2871 255 255 255
74.6323 108.133 -95.5696 255 255 255
-14.2375 95.0195 -49.5555 255 255 255
58.8271 68.3142 -12.2903 255 255 255
17.2006 97.9802 -67.9775 255 255 255
63.2668 63.2855 -5.33594 255 255 255
81.6568 105.253 -102.647 255 255 255
118.7 109.896 -123.656 255 255 255
118.7 109.896 -123.656 255 255 255
50.4545 100.548 -86.8422 255 255 255
63.8951 61.4809 -4.76382 255 255 255
116.549 108.049 -123.106 255 255 255
38.9766 93.9653 -83.5515 255 255 255
-14.7317 87.0049 -54.9797 255 255 255
-4.33498 87.9038 -61.3387 255 255 255
-13.4059 85.9997 -56.2631 255 255 255
100.381 97.6183 -119.638 255 255 255
57.1025 44.822 18.2503 255 255 255
53.6868 92.5272 -94.6066 255 255 255
53.6868 92.5272 -94.6066 255 255 255
68.9119 93.9577 -103.334 255 255 255
96.2232 96.6736 -118.915 255 255 255
70.3922 93.6209 -104.187 255 255 255
69.0376 93.2838 -104.11 255 255 255
60.9876 40.7752 23.9321 255 255 255
63.4178 37.7878 29.6624 255 255 255
64.2764 36.7429 29.8717 255 255 255
65.8125 50.8854 -5.90025 255 255 255
39.0759 88.4066 -89.2087 255 255 255
59.8311 55.6483 -16.1457 255 255 255
59.2816 39.6635 20.8478 255 255 255
-17.3387 81.2505 -57.5738 255 255 255
-1.72988 82.4919 -67.5958 255 255 255
65.5682 88.1205 -105.873 255 255 255
1.94605 81.7557 -69.8893 255 255 255
56.0258 40.9955 13.645 255 255 255
71.6124 87.0504 -110.136 255 255 255
0.81664 79.6441 -65.4926 255 255 255
63.6565 48.7754 -11.9971 255 255 255
64.2206 48.1573 -10.6366 255 255 255
64.2206 48.1573 -10.6367 255 255 255
37.2694 83.5518 -92.258 255 255 255
26.4481 81.6422 -85.4308 255 255 255
26.4481 81.6422 -85.4308 255 255 255
63.3386 83.8256 -105.699 255 255 255
71.0032 84.4423 -110.192 255 255 255
55.5486 83.8093 -103.016 255 255 255
60.3705 35.9753 18.8624 255 255 255
68.0345 83.9398 -109.685 255 255 255
68.369 84.1217 -110.253 255 255 255
55.949 83.067 -103.083 255 255 255
41.1439 81.6473 -95.0841 255 255 255
4.07953 78.2899 -73.8866 255 255 255
4.08705 78.2944 -73.9 255 255 255
-20.3791 76.226 -59.0689 255 255 255
56.9428 80.5486 -103.754 255 255 255
59.8856 33.5658 18.0542 255 255 255
13.1202 76.7197 -79.5622 255 255 255
32.0794 78.4187 -91.9042 255 255 255
-7.02702 75.5712 -68.8408 255 255 255
60.5607 79.5461 -107.956 255 255 255
59.7176 33.4786 16.8823 255 255 255
7.43649 75.0236 -77.257 255 255 255
21.0979 73.5235 -87.2028 255 255 255
17.7743 73.7073 -86.6887 255 255 255
25.2108 73.4667 -89.5588 255 255 255
60.28 28.821 15.9135 255 255 255
29.4753 71.019 -92.1722 255 255 255
30.1299 70.6734 -92.5841 255 255 255
58.6655 43.4689 -30.2399 255 255 255
-4.3356 69.3132 -75.5354 255 255 255
37.1229 70.9705 -100.922 255 255 255
21.5804 68.2423 -88.9709 255 255 255
33.2559 68.5542 -100.631 255 255 255
34.8911 67.708 -101.07 255 255 255
6.4416 66.7609 -83.6015 255 255 255
5.05491 66.0136 -82.1907 255 255 255
58.5421 26.4988 9.33409 255 255 255
66.0775 33.621 -17.4446 255 255 255
32.9301 66.1353 -101.886 255 255 255
-15.6516 64.2733 -70.0819 255 255 255
57.3728 26.9338 5.76026 255 255 255
58.7307 25.7277 8.41319 255 255 255
59.5395 25.1155 9.83756 255 255 255
64.2349 20.0673 19.6022 255 255 255
58.3056 24.5239 7.23259 255 255 255
60.2243 21.1027 9.58254 255 255 255
57.1092 23.4567 3.15157 255 255 255
-13.3605 59.2814 -76.1538 255 255 255
-15.2197 58.8524 -75.1395 255 255 255
64.3888 27.976 -23.289 255 255 255
65.2139 27.7 -23.5762 255 255 255
-19.6715 57.4647 -73.3883 255 255 255
59.2007 32.0225 -37.8695 255 255 255
-10.083 56.4156 -81.1501 255 255 255
-10.083 56.4156 -81.1501 255 255 255
59.8356 17.6238 6.44904 255 255 255
55.9697 19.8804 -1.59083 255 255 255
55.6922 32.5525 -47.8608 255 255 255
60.3968 15.9978 5.72292 255 255 255
60.1365 15.9427 6.02972 255 255 255
56.898 17.6549 -0.832657 255 255 255
57.228 27.6374 -44.7222 255 255 255
64.2176 20.8843 -32.1256 255 255 255
62.836 10.2564 8.12525 255 255 255
-16.1236 48.0839 -80.1972 255 255 255
63.4754 9.16757 8.92411 255 255 255
56.2305 25.3291 -50.3392 255 255 255
56.0567 24.8567 -50.9161 255 255 255
57.1003 12.5178 -4.88954 255 255 255
62.1435 9.03469 5.23128 255 255 255
57.3624 11.7993 -4.55223 255 255 255
64.8969 6.1437 11.3752 255 255 255
58.4342 9.89825 -3.37247 255 255 255
-6.59986 43.8322 -92.1518 255 255 255
-25.5216 44.316 -80.3225 255 255 255
11.0631 37.314 -83.8379 255 255 255
22.2455 32.8734 -79.5873 255 255 255
-3.95496 40.4353 -88.3622 255 255 255
6.8057 35.2032 -82.446 255 255 255
17.5197 28.264 -74.0874 255 255 255
63.9358 1.20395 4.54697 255 255 255
8.09023 29.2123 -72.9434 255 255 255
18.1464 26.6261 -71.5286 255 255 255
67.2205 -1.77444 11.0764 255 255 255
16.3788 26.1597 -69.6448 255 255 255
15.1439 26.6527 -71.3581 255 255 255
62.5274 0.765491 0.631982 255 255 255
2.04864 29.6882 -75.7023 255 255 255
65.5603 -2.74597 5.85628 255 255 255
56.6711 2.95523 -13.2397 255 255 255
1.82592 26.8059 -71.8014 255 255 255
55.6855 3.44483 -15.5203 255 255 255
63.4674 -1.81462 1.17909 255 255 255
7.00618 4.37783 26.3508 255 255 255
7.29245 4.25686 26.5916 255 255 255
59.9505 -1.5298 -7.01156 255 255 255
7.91827 1.55615 31.1836 255 255 255
-1.99266 20.8824 -64.3404 255 255 255
59.6658 -3.49323 -9.64803 255 255 255
68.4702 -9.42911 8.4066 255 255 255
67.6552 -8.91428 6.6144 255 255 255
11.0553 -0.684788 31.089 255 255 255
59.1017 -5.26472 -15.1139 255 255 255
-14.438 20.2586 -63.1437 255 255 255
-13.0795 4.758 26.0963 255 255 255
64.9176 -10.8618 -2.63186 255 255 255
2.21507 -1.99044 35.3765 255 255 255
57.1189 -6.58434 -20.0589 255 255 255
2.97108 -2.98443 36.4392 255 255 255
66.4225 -12.8331 -0.381316 255 255 255
29.1918 -6.19397 13.0031 255 255 255
65.4277 -13.0313 -2.94914 255 255 255
10.9644 -6.1102 34.8932 255 255 255
66.9832 -15.0213 0.11435 255 255 255
-16.5239 1.2464 26.8514 255 255 255
-13.8161 11.8853 -52.0734 255 255 255
67.6929 -16.2241 1.83183 255 255 255
4.51629 -5.7448 37.2873 255 255 255
68.459 -17.0313 2.41615 255 255 255
-15.187 -1.35359 30.688 255 255 255
4.99682 -7.77658 38.0741 255 255 255
-3.27296 -5.83838 38.5549 255 255 255
69.3498 -20.712 1.60148 255 255 255
-3.1548 -7.14004 39.054 255 255 255
69.2547 -21.1845 2.00061 255 255 255
-7.00562 -6.71577 37.9561 255 255 255
-22.9618 -0.121909 11.7896 255 255 255
-1.13904 -9.31803 39.456 255 255 255
-23.0652 5.68612 -45.2503 255 255 255
-14.7852 -5.49954 33.6468 255 255 255
26.3595 -16.5808 27.043 255 255 255
10.5586 -13.3902 35.5807 255 255 255
-28.095 -1.49492 8.76901 255 255 255
11.0385 -14.6994 35.3539 255 255 255
25.324 -17.9867 28.7159 255 255 255
-9.94107 -9.55105 38.057 255 255 255
-19.3318 -6.4992 29.9138 255 255 255
-10.993 -9.86072 37.6809 255 255 255
-10.8675 -10.0832 38.139 255 255 255
12.4207 -16.7201 34.5224 255 255 255
-26.2363 0.188268 -37.9246 255 255 255
-26.2363 0.188269 -37.9246 255 255 255
-28.3515 -4.24661 11.422 255 255 255
-28.0773 -4.77329 12.8364 255 255 255
-24.7008 -1.70017 -35.3121 255 255 255
8.26599 -17.233 37.3632 255 255 255
22.4746 -21.0568 33.0943 255 255 255
-20.608 -9.06314 29.6928 255 255 255
7.66852 -17.5078 37.7749 255 255 255
-25.4863 -7.05902 20.7744 255 255 255
-9.70794 -12.9158 38.4925 255 255 255
0.451327 -15.8306 40.1085 255 255 255
-22.2714 -8.70044 26.4019 255 255 255
-22.2585 -9.25495 26.9231 255 255 255
14.1596 -20.1969 37.2494 255 255 255
-3.71058 -16.5143 39.8152 255 255 255
-17.4899 -12.4801 33.6589 255 255 255
-19.2338 -12.026 31.9001 255 255 255
-11.2307 -14.9809 37.5485 255 255 255
-14.3451 -14.8603 35.5393 255 255 255
-25.0177 -11.2924 26.4415 255 255 255
-3.56127 -18.203 39.3421 255 255 255
-12.8996 -15.6005 37.0292 255 255 255
-18.7849 -13.7046 32.6356 255 255 255
-25.423 -12.1451 27.5272 255 255 255
-24.1342 -12.5294 28.1041 255 255 255
-18.9505 -14.2696 32.3877 255 255 255
-27.6901 -11.2366 22.5118 255 255 255
-16.1936 -15.4287 34.6773 255 255 255
13.5206 -26.4389 39.8697 255 255 255
-20.1694 -17.3386 34.4121 255 255 255
-30.282 -14.369 24.9524 255 255 255
-5.32297 -22.8678 41.1518 255 255 255
-6.16182 -22.7635 41.0453 255 255 255
-33.8853 -14.7748 24.9363 255 255 255
-11.4964 -21.8774 39.9849 255 255 255
-29.669 -16.2905 27.3782 255 255 255
-8.87131 -23.8063 40.1523 255 255 255
-31.717 -17.7776 25.5307 255 255 255
-3.02396 -28.3993 42.5414 255 255 255
-30.9342 -20.0254 25.9057 255 255 255
-29.1223 -21.0234 33.6614 255 255 255
-9.1627 -28.5736 42.7923 255 255 255
-9.10626 -28.58 42.6379 255 255 255
-3.97155 -30.2439 43.4718 255 255 255
1.02456 -32.9092 41.5339 255 255 255
3.35971 -34.2069 40.2398 255 255 255
-21.0152 -26.6175 37.5887 255 255 255
-22.1161 -28.4645 34.7022 255 255 255
-12.9214 -31.7203 39.4861 255 255 255
-17.1475 -31.9715 36.8933 255 255 255
-7.75412 -35.1635 40.6287 255 255 255
4.41908 -39.7457 35.9553 255 255 255
0.25629 -38.4997 37.0338 255 255 255
-17.8033 -33.5703 35.2532 255 255 255
-0.538714 -39.2285 37.1516 255 255 255
-0.571346 -39.2095 37.2121 255 255 255
-24.4818 -33.1798 30.1724 255 255 255
-55.1705 -25.7138 -5.56679 255 255 255
-24.8948 -34.0226 27.1508 255 255 255
-13.9764 -37.3622 34.9946 255 255 255
-27.0411 -35.663 24.6552 255 255 255
-21.4815 -37.528 28.821 255 255 255
-6.19847 -43.4227 34.6021 255 255 255
-27.0967 -37.2797 24.2011 255 255 255
-16.9841 -40.5806 31.4183 255 255 255
-50.8998 -35.1427 6.92751 255 255 255
-53.2306 -35.4933 6.57866 255 255 255
-53.4135 -35.674 7.16646 255 255 255
-9.8129 -51.7149 33.4682 255 255 255
-12.1488 -52.8962 34.4487 255 255 255
-48.8306 -42.4187 15.6889 255 255 255
-47.5163 -43.0505 17.0539 255 255 255
-53.8397 -42.3186 15.7294 255 255 255
4.04007 -61.1808 40.1936 255 255 255
-43.3895 -47.3025 22.2727 255 255 255
15.8996 -66.5786 47.1142 255 255 255
-39.0386 -50.1303 26.2241 255 255 255
-38.8696 -50.5625 26.153 255 255 255
-48.2627 -48.021 23.5138 255 255 255
-49.1538 -48.391 23.5473 255 255 255
2.99049 -66.611 47.2798 255 255 255
-32.4726 -55.6429 33.3219 255 255 255
-28.4466 -59.2219 38.1246 255 255 255
-28.4466 -59.2219 38.1246 255 255 255
8.82572 -71.7383 53.4923 255 255 255
5.47125 -71.1611 52.9048 255 255 255
0.975158 -70.0525 51.347 255 255 255
-42.0704 -56.4942 33.9922 255 255 255
-11.6443 -66.9482 47.8366 255 255 255
-41.2157 -57.7414 35.5707 255 255 255
-38.3469 -60.3118 38.269 255 255 255
-45.0414 -59.0131 37.1818 255 255 255
-24.8737 -66.2215 46.1913 255 255 255
-42.1575 -61.1598 39.6318 255 255 255
-29.3332 -66.1103 45.8471 255 255 255
-29.4007 -65.9904 46.0373 255 255 255
-30.2727 -65.878 46.1012 255 255 255
-30.1949 -66.016 45.8652 255 255 255
-39.6254 -63.9198 43.0894 255 255 255
41.0934 104.055 -78.253 255 255 255
54.9352 106.065 -85.5733 255 255 255
58.0346 69.7777 -14.3392 255 255 255
57.099 103.601 -88.5519 255 255 255
57.099 103.601 -88.5519 255 255 255
82.9904 106.48 -101.639 255 255 255
82.5757 105.415 -102.719 255 255 255
117.489 109.29 -123.597 255 255 255
48.4994 98.5068 -87.1275 255 255 255
62.3588 61.7656 -10.1486 255 255 255
69.9675 99.899 -99.3583 255 255 255
71.4038 99.783 -100.82 255 255 255
71.5819 98.2737 -101.487 255 255 255
96.5862 100.148 -116.414 255 255 255
58.121 44.1715 20.6204 255 255 255
18.8555 89.1789 -75.1108 255 255 255
90.7883 95.9308 -116.058 255 255 255
73.165 93.4502 -105.343 255 255 255
55.7518 44.9363 15.4375 255 255 255
56.8608 91.5079 -98.7184 255 255 255
60.313 56.8343 -17.1464 255 255 255
62.7534 37.6667 28.3266 255 255 255
62.7534 37.6667 28.3267 255 255 255
59.6153 89.1319 -101.238 255 255 255
76.3092 88.4524 -110.268 255 255 255
62.2729 35.2109 26.3137 255 255 255
42.9878 85.1168 -94.5762 255 255 255
57.326 54.3876 -28.29 255 255 255
21.6342 79.4505 -83.3651 255 255 255
-11.8356 75.8843 -65.1401 255 255 255
33.4706 75.2628 -93.3423 255 255 255
33.5736 75.3206 -93.5671 255 255 255
61.5862 29.9381 20.0295 255 255 255
59.143 45.6206 -29.205 255 255 255
-3.76833 71.8063 -74.2635 255 255 255
38.992 71.7965 -99.0945 255 255 255
38.7216 70.711 -99.8867 255 255 255
3.86552 69.2426 -79.3355 255 255 255
62.1329 25.5692 17.9166 255 255 255
31.3651 68.9044 -97.9795 255 255 255
32.2378 68.382 -98.034 255 255 255
32.6188 68.6966 -99.1159 255 255 255
13.8509 65.6967 -81.5499 255 255 255
66.1165 34.4589 -16.7432 255 255 255
-1.63427 65.2074 -79.1492 255 255 255
34.3085 66.2224 -102.807 255 255 255
-3.75212 63.2752 -78.3939 255 255 255
41.1124 64.542 -107.242 255 255 255
41.1123 64.542 -107.242 255 255 255
50.1938 62.7602 -114.762 255 255 255
-6.11695 61.1151 -78.6823 255 255 255
57.9452 23.7544 5.60341 255 255 255
63.5323 16.3641 13.965 255 255 255
53.035 39.4817 -86.9089 255 255 255
-15.1112 50.6577 -80.2715 255 255 255
55.9797 16.4754 -5.89698 255 255 255
63.4434 20.1743 -35.757 255 255 255
-3.24508 47.8306 -92.2218 255 255 255
-8.12106 44.9569 -90.8918 255 255 255
62.6022 5.88377 4.62418 255 255 255
66.2987 2.66644 11.5281 255 255 255
17.4011 29.3669 -74.9516 255 255 255
8.06342 29.2846 -75.1434 255 255 255
5.96735 27.1482 -72.1916 255 255 255
56.5236 2.92829 -11.8806 255 255 255
58.5366 2.03437 -9.42364 255 255 255
60.1858 0.496463 -5.60284 255 255 255
59.495 0.93673 -7.34399 255 255 255
59.4459 0.867081 -7.28933 255 255 255
66.3311 -3.5888 7.0461 255 255 255
4.44024 18.5347 -61.9207 255 255 255
6.82615 1.80491 28.0892 255 255 255
55.9347 -1.65158 -18.4587 255 255 255
68.3752 -9.06864 7.1613 255 255 255
7.53419 -0.0386874 32.7356 255 255 255
57.5649 -5.19454 -16.4493 255 255 255
57.6204 -5.19096 -16.5108 255 255 255
29.2811 -6.22149 12.8571 255 255 255
67.5092 -14.2081 4.44658 255 255 255
57.0997 -9.09723 -21.0002 255 255 255
0.789689 -3.95208 37.3027 255 255 255
11.6323 -6.85287 34.4748 255 255 255
62.2822 -14.5914 -10.4113 255 255 255
62.3734 -14.5982 -10.5311 255 255 255
68.242 -17.6827 1.68037 255 255 255
-17.9032 0.334418 26.508 255 255 255
67.5114 -18.1639 -1.54716 255 255 255
3.79825 -7.94275 37.9886 255 255 255
11.2138 -9.65392 35.5017 255 255 255
61.7193 -16.1456 -13.6978 255 255 255
9.87497 -9.53428 36.7545 255 255 255
-1.90571 -8.55216 39.3443 255 255 255
-11.99 -6.11708 36.0879 255 255 255
-24.6169 -0.750731 12.7186 255 255 255
-29.5407 1.36247 4.6868 255 255 255
-25.242 -0.625908 6.89391 255 255 255
-27.6174 5.24401 -44.5595 255 255 255
-22.3943 -4.10427 23.2427 255 255 255
0.802603 -13.4668 39.9283 255 255 255
-11.3155 -10.7904 37.6564 255 255 255
-24.5253 -5.60126 19.1177 255 255 255
12.3084 -17.1352 34.3597 255 255 255
-14.1646 -10.2598 35.9718 255 255 255
-22.6172 -8.23698 25.8786 255 255 255
54.2713 -27.4685 -2.81864 255 255 255
-4.44928 -15.2861 39.8661 255 255 255
-30.2334 -6.81713 14.8623 255 255 255
-21.3007 -11.6387 29.2311 255 255 255
-5.10738 -16.9157 39.4661 255 255 255
52.2496 -30.6642 -1.14823 255 255 255
-15.3681 -13.9321 35.1194 255 255 255
19.4123 -24.0958 36.3164 255 255 255
-24.4102 -11.4504 27.1799 255 255 255
10.9466 -22.3459 38.5278 255 255 255
-24.0173 -12.1591 27.8924 255 255 255
-5.58154 -19.1912 38.9981 255 255 255
-17.7897 -16.498 33.2532 255 255 255
-14.9357 -17.7502 34.9198 255 255 255
-21.4043 -16.3502 32.9526 255 255 255
15.7151 -27.9471 39.054 255 255 255
-11.1234 -22.8589 39.7129 255 255 255
-3.22029 -25.2879 40.6903 255 255 255
0.991168 -28.0663 41.9986 255 255 255
-33.1816 -18.7766 21.3628 255 255 255
-30.7525 -19.8263 26.9644 255 255 255
-28.5861 -21.1523 33.2072 255 255 255
-12.5917 -26.7212 40.567 255 255 255
-15.8192 -26.6307 40.2976 255 255 255
12.8647 -36.828 34.033 255 255 255
-22.2405 -25.6908 36.9481 255 255 255
-27.7003 -25.2531 30.5768 255 255 255
12.5503 -39.5314 32.5966 255 255 255
12.8988 -39.6318 31.9306 255 255 255
-19.2452 -32.5324 35.0534 255 255 255
-7.75709 -36.2225 39.9448 255 255 255
-22.2233 -32.0946 31.8556 255 255 255
-26.4105 -31.2861 27.6037 255 255 255
-29.7779 -31.0263 21.0081 255 255 255
0.262633 -40.4235 36.1244 255 255 255
0.262637 -40.4235 36.1244 255 255 255
-2.22784 -39.8104 35.5658 255 255 255
-2.74935 -40.2892 35.8141 255 255 255
-2.74935 -40.2892 35.8141 255 255 255
5.49675 -43.48 34.5766 255 255 255
-23.8288 -34.7905 29.4279 255 255 255
-15.326 -39.0495 32.5147 255 255 255
-52.8413 -30.0248 0.403285 255 255 255
-52.8611 -29.9798 0.712733 255 255 255
-50.6482 -37.9421 10.6662 255 255 255
-9.85115 -50.7992 33.5478 255 255 255
-8.14861 -52.0002 34.0007 255 255 255
6.34881 -60.5784 39.388 255 255 255
-43.6966 -47.5494 22.6429 255 255 255
-40.4962 -52.265 28.9773 255 255 255
-1.39429 -64.6905 44.5067 255 255 255
-0.435163 -68.8482 49.7944 255 255 255
-36.2069 -58.2636 36.2185 255 255 255
-35.7542 -58.6963 36.8015 255 255 255
-31.1717 -66.9019 47.7094 255 255 255
-39.3266 -64.8108 44.383 255 255 255
63.7561 69.3737 -5.82648 255 255 255
100.813 113.072 -109.446 255 255 255
30.6905 102.62 -72.9407 255 255 255
30.6905 102.62 -72.9407 255 255 255
77.9594 107.733 -97.5235 255 255 255
56.4701 71.5941 -16.7246 255 255 255
54.0099 104.092 -87.1038 255 255 255
0.409886 94.9757 -58.7119 255 255 255
58.3185 67.5881 -15.4816 255 255 255
61.3454 49.7246 21.3085 255 255 255
-7.32632 89.8814 -56.8806 255 255 255
69.2305 98.0846 -101.683 255 255 255
68.5317 97.5613 -100.247 255 255 255
-5.14608 83.6024 -63.9587 255 255 255
17.6806 84.9169 -76.3141 255 255 255
75.2535 89.7796 -109.782 255 255 255
59.352 38.293 19.9261 255 255 255
43.5179 83.2708 -95.2579 255 255 255
58.4601 79.8512 -103.614 255 255 255
58.692 79.96 -104.038 255 255 255
33.795 78.3339 -92.0549 255 255 255
