ply
format ascii 1.0
element vertex 1274
property float x
property float y
property float z
property uchar red
property uchar green
property uchar blue
end_header
10.9245 98.0977 -39.2653 255 255 255
12.484 112.103 -45.8042 255 255 255
12.9299 118.546 -48.1958 255 255 255
14.186 89.8327 -52.6551 255 255 255
-3.68718 -10.695 35.252 255 255 255
14.391 91.8796 -50.6737 255 255 255
-3.74631 -13.9982 35.9131 255 255 255
14.7786 92.3244 -50.2184 255 255 255
14.1391 115.069 -48.2955 255 255 255
-3.09963 -7.66918 34.1014 255 255 255
12.614 99.1679 -39.706 255 255 255
12.614 99.1679 -39.706 255 255 255
15.6237 132.249 -48.8388 255 255 255
14.1326 99.6411 -41.4248 255 255 255
15.4543 113.238 -47.5041 255 255 255
24.2875 61.994 -85.047 255 255 255
-1.50362 -57.743 32.9795 255 255 255
16.2335 102.977 -44.4238 255 255 255
17.2789 112.116 -48.5436 255 255 255
17.2789 112.116 -48.5436 255 255 255
17.0682 108.826 -47.0425 255 255 255
17.0682 108.826 -47.0425 255 255 255
26.0515 63.3116 -84.4564 255 255 255
18.0691 114.356 -49.3701 255 255 255
16.8955 103.826 -43.9974 255 255 255
18.6199 115.06 -49.786 255 255 255
-2.31309 -31.2849 38.9875 255 255 255
-1.55672 -30.1502 37.163 255 255 255
20.5073 93.2262 -53.9583 255 255 255
19.4131 110.288 -48.01 255 255 255
-0.45233 -24.7234 36.3835 255 255 255
-0.45233 -24.7234 36.3835 255 255 255
23.8131 21.1284 -57.8954 255 255 255
22.662 106.945 -48.0138 255 255 255
24.9162 21.6599 -58.6439 255 255 255
26.2628 92.5282 -59.4723 255 255 255
0.978965 -16.7141 35.5472 255 255 255
33.577 78.6117 -77.5202 255 255 255
28.926 98.2917 -58.6428 255 255 255
1.50762 -31.9137 38.5005 255 255 255
35.864 88.7216 -70.8349 255 255 255
35.9723 90.8604 -66.9135 255 255 255
36.8804 88.9626 -69.7034 255 255 255
-75.359 -2.27941 97.589 255 255 255
-123.69 -0.885862 -22.1688 255 255 255
-177.9 125.313 -126.04 255 255 255
-149.407 62.4191 -93.9156 255 255 255
-169.759 108.801 -119.023 255 255 255
-153.107 118.47 -85.9791 255 255 255
-149.319 124.905 -74.8398 255 255 255
-153.005 94.4354 -101.511 255 255 255
-149.323 115.558 -80.9637 255 255 255
-150.193 105.143 -90.8197 255 255 255
-148.054 116.522 -81.2333 255 255 255
-149.752 89.9715 -102.159 255 255 255
-143.455 113.023 -75.6039 255 255 255
-130.43 74.981 -76.7718 255 255 255
-128.246 77.7363 -73.048 255 255 255
-119.39 93.1707 -46.2691 255 255 255
-119.092 102.413 -39.6951 255 255 255
-118.874 88.4048 -47.4534 255 255 255
-117.611 86.11 -44.3314 255 255 255
-119.715 85.5067 -52.4003 255 255 255
-118.413 101.671 -41.7112 255 255 255
-113.6 77.4158 -44.0854 255 255 255
-136.131 144.351 -69.5498 255 255 255
-112.59 95.3995 -34.5433 255 255 255
-111.289 78.8151 -40.4536 255 255 255
-122.542 118.093 -50.7188 255 255 255
-101.374 63.9531 -31.6714 255 255 255
-102.182 68.1284 -31.3862 255 255 255
-102.182 68.1284 -31.3862 255 255 255
-98.5034 67.2157 -24.5211 255 255 255
-126.271 151.944 -73.3512 255 255 255
-84.9845 65.4976 -1.26303 255 255 255
-70.7539 -19.1039 -7.62215 255 255 255
-89.517 84.1039 -9.50306 255 255 255
-69.3783 -20.1899 -5.67713 255 255 255
-84.4268 26.0279 -32.9451 255 255 255
-82.8939 33.5969 -27.1344 255 255 255
-100.901 116.704 -40.4808 255 255 255
-100.726 117.939 -39.484 255 255 255
-82.3527 33.6754 -27.2936 255 255 255
-99.9949 119.733 -39.3366 255 255 255
-80.7665 53.0523 -10.9505 255 255 255
-99.6355 115.628 -43.2431 255 255 255
-80.4582 50.2716 -13.9277 255 255 255
-98.637 117.934 -41.7561 255 255 255
-97.4545 119.306 -38.8811 255 255 255
-97.7648 116.689 -43.0554 255 255 255
-97.3929 115.82 -41.7099 255 255 255
-97.2149 116.801 -40.9373 255 255 255
-97.6496 117.967 -42.5964 255 255 255
-96.1546 119.251 -43.9831 255 255 255
-78.4577 43.1546 -22.4781 255 255 255
-78.0692 39.3933 -25.482 255 255 255
-95.2588 119.707 -42.3009 255 255 255
-78.2851 25.2282 -38.2768 255 255 255
-71.4014 -0.432661 -27.3916 255 255 255
-77.193 51.0059 -16.1202 255 255 255
-78.1258 27.442 -37.5558 255 255 255
-78.8192 78.0026 -5.2554 255 255 255
-77.2729 35.7806 -30.4716 255 255 255
-93.5362 119.479 -41.5833 255 255 255
-76.599 34.2779 -32.2962 255 255 255
-50.3874 -45.9909 23.5046 255 255 255
-75.747 36.1145 -31.2228 255 255 255
-73.5634 65.5374 -5.05055 255 255 255
-73.1488 65.4866 -4.32185 255 255 255
-73.5427 55.8808 -14.1346 255 255 255
-75.4986 93.0794 -12.8515 255 255 255
-44.9723 -50.3234 27.6431 255 255 255
-67.8145 64.8242 -11.2571 255 255 255
-46.926 -42.4354 18.4094 255 255 255
-84.5887 142.282 -51.9196 255 255 255
-66.3014 67.6259 -8.56807 255 255 255
-52.8565 -17.6621 -9.97411 255 255 255
-52.0289 -19.3955 -8.04535 255 255 255
-62.3393 53.484 -25.9582 255 255 255
-66.4836 105.526 -15.1743 255 255 255
-52.2381 -6.16053 -21.6917 255 255 255
-60.73 67.9335 -13.4907 255 255 255
-50.5192 -7.54616 -21.2112 255 255 255
-35.7237 -61.269 38.9942 255 255 255
-38.78 -48.8545 25.214 255 255 255
-49.2325 -8.49661 -19.1637 255 255 255
-57.6581 42.0881 -38.2489 255 255 255
-56.8416 42.2934 -39.1493 255 255 255
-36.4276 -54.0837 31.511 255 255 255
-56.292 71.7701 -14.0106 255 255 255
-55.2697 56.8436 -28.521 255 255 255
-54.6545 40.9499 -42.4907 255 255 255
-49.3372 26.7377 -57.9946 255 255 255
-47.8637 44.2301 -44.6038 255 255 255
-58.7253 113.948 -108.05 255 255 255
-46.9078 40.6726 -46.731 255 255 255
-29.3428 -61.6526 39.9189 255 255 255
-46.4484 72.4531 -20.3956 255 255 255
-43.3425 63.5235 -31.7472 255 255 255
-40.7427 46.9146 -48.5399 255 255 255
-42.6634 86.859 -21.7413 255 255 255
-39.914 48.018 -47.565 255 255 255
-40.0204 61.6423 -35.4564 255 255 255
-25.9543 -61.5223 39.1506 255 255 255
-25.9543 -61.5223 39.1506 255 255 255
-25.8094 -62.103 39.2561 255 255 255
-25.7566 -57.5649 34.0468 255 255 255
-38.0769 76.5678 -23.1716 255 255 255
-25.6821 -54.5496 31.1338 255 255 255
-25.4007 -56.9343 33.8512 255 255 255
-27.3514 -28.4378 20.4435 255 255 255
-33.883 49.1316 -51.8341 255 255 255
-23.6879 -62.4153 39.8795 255 255 255
-23.5331 -64.3011 41.8631 255 255 255
-27.0251 -19.4959 26.171 255 255 255
-30.6102 49.2031 -54.2793 255 255 255
-30.6481 48.7663 -52.8949 255 255 255
-26.0919 -17.9064 26.4355 255 255 255
-22.7894 -58.0829 35.0357 255 255 255
-25.6215 -8.33482 14.5547 255 255 255
-25.6983 -7.50387 13.5003 255 255 255
-22.4175 -55.6879 32.2993 255 255 255
-21.853 -64.7004 42.6038 255 255 255
-21.8417 -64.9774 42.0447 255 255 255
-22.226 -57.1754 33.9338 255 255 255
-24.5929 -23.7564 32.1581 255 255 255
-27.5384 54.9352 -50.4774 255 255 255
-26.9875 51.4377 -54.6638 255 255 255
-21.6599 -54.9883 31.4513 255 255 255
-20.4979 -63.1021 40.8018 255 255 255
-20.5829 -59.0047 35.6939 255 255 255
-20.2939 -56.4675 32.9184 255 255 255
-22.5047 -7.60749 18.1658 255 255 255
-21.0425 -34.2701 26.3853 255 255 255
-18.2864 53.3318 -59.9057 255 255 255
-18.6308 56.8117 -54.5861 255 255 255
-21.6891 82.0425 -29.1766 255 255 255
-22.4779 98.4618 -26.9222 255 255 255
-16.933 -59.3425 36.0316 255 255 255
-16.6392 -58.9734 35.5238 255 255 255
-13.0958 38.2637 -74.9298 255 255 255
-16.4432 -63.0801 38.4751 255 255 255
-16.2631 -59.2915 35.8611 255 255 255
-16.3348 -61.4963 38.5395 255 255 255
-15.8264 -58.3523 34.9049 255 255 255
-15.7908 -61.1255 38.2732 255 255 255
-15.3489 -60.9562 38.1516 255 255 255
-16.5017 110.394 -34.9849 255 255 255
-16.4788 121.182 -39.3411 255 255 255
-16.2882 -2.95415 23.1669 255 255 255
-15.7173 110.065 -36.4336 255 255 255
-9.95228 51.5827 -66.2151 255 255 255
-16.0542 -15.938 31.0529 255 255 255
-14.8801 106.352 -34.8139 255 255 255
-14.8011 117.516 -39.428 255 255 255
-14.8535 122.126 -40.6139 255 255 255
-13.5478 125.369 -42.334 255 255 255
-13.7103 -59.1172 35.5833 255 255 255
-12.8855 112.9 -37.7563 255 255 255
-12.8855 112.9 -37.7563 255 255 255
-13.5668 -58.6509 35.6312 255 255 255
-11.2275 80.9092 -40.1609 255 255 255
-10.5397 77.2616 -43.1134 255 255 255
-10.5794 77.1163 -42.8868 255 255 255
-12.434 104.624 -34.8494 255 255 255
-12.3525 106.73 -35.8877 255 255 255
-14.5535 -2.65496 25.1285 255 255 255
-12.0921 112.556 -39.1062 255 255 255
-12.0847 112.001 -38.4519 255 255 255
-14.3939 -21.2785 33.5907 255 255 255
-13.4616 -1.13043 24.1468 255 255 255
-13.3979 -1.06633 23.7856 255 255 255
-10.3844 117.316 -38.4331 255 255 255
-9.84297 110.046 -37.9732 255 255 255
-9.3314 121.879 -42.7557 255 255 255
-7.50274 80.2818 -43.3171 255 255 255
-9.6312 99.0425 -32.5397 255 255 255
-4.02691 17.4075 -52.4133 255 255 255
-6.65909 75.0763 -47.2533 255 255 255
-12.9958 -25.5529 34.2801 255 255 255
-12.6237 -33.1398 34.0926 255 255 255
-8.41605 109.198 -36.8801 255 255 255
-8.41605 109.198 -36.8801 255 255 255
-7.12566 111.246 -40.7709 255 255 255
-7.25638 103.362 -36.4924 255 255 255
-7.25638 103.362 -36.4924 255 255 255
-7.04063 115.786 -41.627 255 255 255
-11.6926 -36.0126 32.1697 255 255 255
-6.91575 98.8544 -34.7666 255 255 255
-6.91117 98.993 -34.9526 255 255 255
-6.737 120.743 -42.4251 255 255 255
-6.93456 93.7084 -31.4912 255 255 255
-6.11498 114.052 -41.3873 255 255 255
-11.9329 -19.0219 33.1049 255 255 255
-11.9576 -22.2466 34.7297 255 255 255
-5.41765 88.637 -36.9719 255 255 255
-2.08919 70.8599 -55.8746 255 255 255
-5.40949 94.242 -32.3918 255 255 255
-4.95347 100.599 -36.5355 255 255 255
-3.67843 84.093 -41.2728 255 255 255
-4.49579 123.046 -43.7606 255 255 255
-10.1989 0.359912 24.6713 255 255 255
-1.37071 85.6087 -43.7615 255 255 255
1.54231 72.841 -58.8054 255 255 255
3.72615 60.693 -69.5566 255 255 255
-9.91296 -5.13237 30.469 255 255 255
-8.43652 0.725131 24.3025 255 255 255
0.889261 86.387 -44.9185 255 255 255
-0.90516 101.743 -36.6267 255 255 255
7.43301 55.2193 -74.6799 255 255 255
-8.08537 -3.96471 30.2858 255 255 255
-8.00518 -11.4814 34.7679 255 255 255
-7.69596 -11.6402 34.5529 255 255 255
2.70327 113.666 -35.5515 255 255 255
6.83763 80.1114 -54.8575 255 255 255
10.582 60.1522 -70.3849 255 255 255
7.25795 87.8849 -48.4731 255 255 255
7.05442 106.879 -41.8624 255 255 255
7.03746 106.83 -41.8011 255 255 255
8.16769 94.0005 -42.8196 255 255 255
9.3245 89.825 -47.857 255 255 255
8.12239 100.953 -40.9627 255 255 255
8.08554 100.681 -40.5174 255 255 255
9.6449 120.015 -44.2675 255 255 255
-5.05208 -20.5274 35.4809 255 255 255
15.0146 76.0071 -64.6887 255 255 255
14.9033 75.858 -64.3007 255 255 255
-4.82894 -14.9869 36.4238 255 255 255
13.7466 86.915 -54.2803 255 255 255
12.0979 112.675 -47.2538 255 255 255
-4.06971 -8.72806 34.3572 255 255 255
12.3702 98.7438 -40.05 255 255 255
19.1763 72.4975 -71.2075 255 255 255
16.1762 90.2026 -53.2365 255 255 255
23.0595 61.9326 -82.9365 255 255 255
21.2657 71.1371 -73.4574 255 255 255
17.3975 90.4545 -53.5139 255 255 255
16.5458 114.058 -49.1566 255 255 255
16.5148 113.894 -48.8855 255 255 255
17.6353 91.7362 -52.5279 255 255 255
23.557 67.6236 -78.5429 255 255 255
18.0611 118.312 -50.7605 255 255 255
18.7017 92.0094 -53.1473 255 255 255
18.0773 108.489 -47.3305 255 255 255
26.1247 38.5035 -78.0117 255 255 255
22.4974 89.9274 -58.7631 255 255 255
19.9557 110.308 -47.4328 255 255 255
19.9557 110.308 -47.4328 255 255 255
20.1336 102.136 -45.4539 255 255 255
1.19111 -35.3168 35.34 255 255 255
3.25066 -42.9457 28.9038 255 255 255
1.94714 -14.9422 35.9041 255 255 255
32.7108 85.9811 -70.9465 255 255 255
1.51807 -31.5163 38.5113 255 255 255
32.3885 92.4073 -64.5195 255 255 255
32.3885 92.4073 -64.5195 255 255 255
30.6653 98.1247 -55.9419 255 255 255
44.3118 61.4041 -98.2398 255 255 255
-79.5313 2.67243 96.8783 255 255 255
-162.315 99.245 -115.168 255 255 255
-149.121 110.268 -85.5622 255 255 255
-138.361 102.022 -73.3547 255 255 255
-127.056 114.365 -52.0098 255 255 255
-131.252 121.988 -59.0794 255 255 255
-127.116 120.506 -54.4506 255 255 255
-115.279 91.4042 -38.5426 255 255 255
-124.957 117.919 -52.5762 255 255 255
-136.413 143.314 -71.0376 255 255 255
-107.255 70.1751 -39.1095 255 255 255
-92.843 61.233 -16.6968 255 255 255
-74.0676 -14.5622 -12.0602 255 255 255
-85.7815 48.3745 -15.7825 255 255 255
-83.4374 63.4975 0.524429 255 255 255
-106.295 122.503 -44.5588 255 255 255
-80.3271 60.613 -4.56452 255 255 255
-80.2419 45.3855 -18.8824 255 255 255
-80.2756 40.4758 -22.5955 255 255 255
-97.1813 119.546 -41.943 255 255 255
-95.7071 121.98 -36.9642 255 255 255
-78.0069 56.0018 -10.4079 255 255 255
-78.1464 56.1796 -10.9254 255 255 255
-78.4012 41.2604 -24.0602 255 255 255
-77.1959 63.4782 -4.31892 255 255 255
-93.9363 120.127 -38.6504 255 255 255
-77.9602 34.5402 -31.3815 255 255 255
-77.5004 38.3138 -26.6875 255 255 255
-80.8532 83.6956 -9.51872 255 255 255
-77.2036 28.0624 -37.1425 255 255 255
-74.6043 64.4759 -5.80151 255 255 255
-74.2828 53.3461 -17.1964 255 255 255
-75.7023 90.752 -11.176 255 255 255
-70.895 36.6068 -34.2868 255 255 255
-74.9228 94.5009 -13.0209 255 255 255
-65.5686 66.0345 -10.5309 255 255 255
-63.0695 68.5034 -9.3088 255 255 255
-39.3202 -51.6664 27.1388 255 255 255
-87.1199 195.053 -104.395 255 255 255
-59.4367 61.3918 -21.6303 255 255 255
-59.3838 61.1729 -21.2507 255 255 255
-50.5353 -4.35668 -24.1246 255 255 255
-38.7236 -48.0398 24.4636 255 255 255
-49.1428 -3.81727 -24.2851 255 255 255
-56.2645 66.7109 -18.2413 255 255 255
-53.7953 28.7361 -51.6197 255 255 255
-43.4362 -14.2766 -12.9817 255 255 255
-53.2667 71.8539 -14.2432 255 255 255
-32.6788 -61.5857 40.3045 255 255 255
-44.2683 -9.13257 -19.378 255 255 255
-34.1273 -51.2403 28.1721 255 255 255
-50.6953 72.5016 -15.2494 255 255 255
-32.9242 -53.7606 30.6457 255 255 255
-31.3808 -59.687 37.3901 255 255 255
-31.382 -59.6482 37.4313 255 255 255
-49.1355 72.4561 -17.1804 255 255 255
-44.04 15.9956 -47.3773 255 255 255
-45.7981 63.4899 -31.8694 255 255 255
-27.8225 -62.1238 40.439 255 255 255
-42.785 91.2023 -18.2126 255 255 255
-38.9637 76.3076 -22.56 255 255 255
-26.3347 -55.8284 32.8461 255 255 255
-43.8598 218.643 -129.924 255 255 255
-22.4636 -64.6882 42.0157 255 255 255
-22.771 -55.3928 31.9683 255 255 255
-23.4454 -4.14526 9.52732 255 255 255
-24.3872 64.2463 -45.3224 255 255 255
-25.0839 80.5625 -29.1737 255 255 255
-20.727 -4.99327 15.1949 255 255 255
-18.4922 -57.3545 33.7615 255 255 255
-18.3338 -65.2025 42.9574 255 255 255
-17.5683 16.7116 -49.344 255 255 255
-19.8537 -0.877889 6.05499 255 255 255
-16.5907 -61.7018 38.7355 255 255 255
-16.1954 -58.4597 35.0277 255 255 255
-15.8924 -29.1322 36.1999 255 255 255
-9.88059 60.5114 -59.019 255 255 255
-9.88059 60.5114 -59.019 255 255 255
-8.30507 68.1622 -54.0208 255 255 255
-5.17463 214.231 -130.263 255 255 255
-11.2005 100.435 -34.1141 255 255 255
-8.9241 90.0517 -33.1462 255 255 255
-12.9625 -21.9577 34.1491 255 255 255
-6.4446 116.325 -38.909 255 255 255
-11.0699 -37.2463 31.6414 255 255 255
-3.49738 82.6895 -44.5142 255 255 255
-4.72355 118.853 -43.2801 255 255 255
-4.09466 87.335 -39.6699 255 255 255
1.61892 27.0774 -63.2789 255 255 255
-10.1044 -60.1952 36.4892 255 255 255
-11.2085 -16.0715 33.7193 255 255 255
-11.2026 -16.0501 33.6648 255 255 255
1.18772 72.9568 -56.4885 255 255 255
-9.40237 0.575748 24.6558 255 255 255
6.58298 52.1656 -78.4322 255 255 255
-8.41771 -45.9099 31.9964 255 255 255
-8.54668 -60.5089 36.5456 255 255 255
-8.2976 -3.2306 29.8908 255 255 255
8.78651 69.9909 -65.2872 255 255 255
-7.43305 -20.3049 36.3012 255 255 255
-7.04842 -6.03769 33.4793 255 255 255
6.01131 90.7213 -44.7066 255 255 255
7.96215 87.6359 -49.5528 255 255 255
-6.40397 -14.7375 36.1139 255 255 255
12.1336 85.5249 -54.9393 255 255 255
10.4977 93.1728 -45.6916 255 255 255
-4.37709 -38.6669 33.4343 255 255 255
10.3907 120.096 -42.971 255 255 255
10.7808 119.812 -44.1692 255 255 255
16.8624 75.0753 -65.3359 255 255 255
17.0631 75.4336 -66.1407 255 255 255
16.8624 75.0753 -65.3359 255 255 255
-3.7221 -9.91303 34.4033 255 255 255
19.2095 72.5429 -71.4578 255 255 255
15.2845 91.1893 -51.8502 255 255 255
19.9931 75.8033 -69.0915 255 255 255
23.9806 73.3087 -73.723 255 255 255
19.8227 88.7576 -55.195 255 255 255
25.5384 37.0399 -76.3077 255 255 255
-1.17593 -11.3383 35.7784 255 255 255
21.3833 92.1045 -55.7448 255 255 255
-0.775419 -14.9448 35.4796 255 255 255
2.65337 -1.86479 23.1929 255 255 255
22.5012 86.9272 -53.6962 255 255 255
-0.215618 -30.2067 37.7236 255 255 255
22.4188 97.9047 -47.8214 255 255 255
29.5273 82.529 -70.9331 255 255 255
2.97513 -43.2313 28.8456 255 255 255
32.8442 74.4393 -79.4517 255 255 255
30.7174 86.9901 -69.0978 255 255 255
33.4109 77.3435 -78.757 255 255 255
28.474 98.6544 -52.0735 255 255 255
30.6741 97.2501 -56.9351 255 255 255
-85.58 -37.5553 16.1391 255 255 255
-199.466 146.571 -152.56 255 255 255
-190.421 134.66 -145.229 255 255 255
-117.472 28.0396 -58.7545 255 255 255
-132.261 85.5696 -73.2951 255 255 255
-128.336 111.694 -50.0126 255 255 255
-128.111 80.6344 -69.6861 255 255 255
-128.111 80.6344 -69.6861 255 255 255
-123.369 89.2012 -55.6003 255 255 255
-122.711 79.8895 -60.2147 255 255 255
-117.99 95.2838 -39.9681 255 255 255
-100.553 64.8834 -29.6677 255 255 255
-81.4708 49.7996 -14.4641 255 255 255
-80.3139 73.1709 -3.90906 255 255 255
-76.9121 64.7111 -4.49432 255 255 255
-76.1052 39.1008 -28.1277 255 255 255
-77.3004 84.9019 -9.22615 255 255 255
-77.3004 84.9019 -9.22615 255 255 255
-76.7354 87.4786 -10.4009 255 255 255
-71.8938 35.2215 -34.1284 255 255 255
-72.0605 53.1446 -21.3311 255 255 255
-69.4287 36.1566 -35.5003 255 255 255
-74.0465 98.778 -15.5606 255 255 255
-78.8521 150.171 -60.6993 255 255 255
-59.748 61.9069 -19.8434 255 255 255
-54.0018 57.0387 -29.1023 255 255 255
-49.2825 73.9248 -17.6952 255 255 255
-27.0425 -61.2963 38.9204 255 255 255
-26.1328 -62.8334 40.6556 255 255 255
-25.7757 -61.9062 39.5425 255 255 255
-26.3297 -57.5572 34.3407 255 255 255
-26.3415 -57.1399 35.455 255 255 255
-37.0498 74.4073 -24.9608 255 255 255
-24.685 -57.0264 33.6479 255 255 255
-27.1978 -27.0755 20.7281 255 255 255
-41.4721 157.037 -73.4692 255 255 255
-23.3204 -57.4568 31.4301 255 255 255
-20.4092 -59.6986 36.7688 255 255 255
-18.0132 -60.5646 36.425 255 255 255
-16.3889 37.3018 -71.4352 255 255 255
-15.9575 -66.3914 44.2926 255 255 255
-17.1614 -28.0348 35.3981 255 255 255
-15.3498 81.4737 -35.0942 255 255 255
-15.3307 -29.5797 37.0783 255 255 255
-12.4154 101.637 -36.0523 255 255 255
-13.7485 -27.444 35.7329 255 255 255
-8.38578 81.1092 -40.7228 255 255 255
-8.38578 81.1092 -40.7228 255 255 255
-13.2265 -22.6443 35.0996 255 255 255
-4.31286 83.9279 -43.895 255 255 255
-10.2814 -0.51931 25.8423 255 255 255
-8.39976 -23.8598 35.9575 255 255 255
-6.4384 0.548629 24.2001 255 255 255
3.24907 113.429 -37.7806 255 255 255
-5.18497 -6.71979 32.8343 255 255 255
-5.26936 -6.76053 33.0486 255 255 255
16.5859 61.6889 -75.646 255 255 255
18.0782 62.0136 -80.0517 255 255 255
19.5608 62.9777 -77.9194 255 255 255
-3.99716 -30.5503 38.3949 255 255 255
-2.76986 -6.93715 33.5963 255 255 255
28.3102 65.6479 -86.5415 255 255 255
-1.30527 -33.4809 36.9546 255 255 255
-0.225538 -10.8015 35.2164 255 255 255
2.95116 -24.2889 35.7002 255 255 255
-84.986 -36.4093 16.4433 255 255 255
-158.396 102.404 -102.869 255 255 255
-159.467 104.292 -106.479 255 255 255
-150.225 95.6669 -100.465 255 255 255
-104.063 75.0128 -29.6745 255 255 255
-105.351 57.1325 -45.1762 255 255 255
-131.621 166.137 -81.2539 255 255 255
-85.8823 35.4717 -31.6883 255 255 255
-102.723 119.313 -38.2271 255 255 255
-79.4387 23.3406 -39.6996 255 255 255
-94.5506 118.733 -38.209 255 255 255
-77.8122 82.6809 -8.10404 255 255 255
-80.9062 143.49 -56.9925 255 255 255
-56.9876 31.3891 -49.1163 255 255 255
-29.6211 -60.0983 37.9986 255 255 255
-29.0044 -56.7591 33.9657 255 255 255
-26.3339 -26.7264 23.2755 255 255 255
-21.9053 -64.6117 40.1271 255 255 255
-19.4321 -58.8643 35.5838 255 255 255
-19.4501 -57.7412 34.5102 255 255 255
-17.283 -24.6375 33.2197 255 255 255
-9.18275 71.4521 -49.4483 255 255 255
-1.45402 21.4719 -56.3252 255 255 255
-1.13264 25.948 -61.5049 255 255 255
-1.48913 19.4854 -53.0949 255 255 255
-4.60211 99.6075 -35.2633 255 255 255
-3.34787 88.3519 -38.718 255 255 255
-8.72616 -59.5296 35.5886 255 255 255
-1.48066 115.123 -38.6301 255 255 255
-7.97003 -22.0652 34.1763 255 255 255
12.9503 69.5285 -69.6622 255 255 255
-5.70449 -36.7422 34.8843 255 255 255
16.4835 131.318 -49.2759 255 255 255
-2.37524 -32.8022 37.8948 255 255 255
17.5906 107.486 -46.8716 255 255 255
-0.365078 -39.2763 32.0261 255 255 255
20.298 102.876 -45.6075 255 255 255
25.3734 121.733 -53.9712 255 255 255
-148.287 92.1425 -87.6917 255 255 255
-142.909 123.254 -60.5519 255 255 255
-149.369 115.578 -86.597 255 255 255
-134.406 118.826 -56.8225 255 255 255
-118.096 66.7056 -61.2208 255 255 255
-117.103 54.3288 -68.2518 255 255 255
-118.274 59.0661 -68.8062 255 255 255
-94.3477 46.0445 -33.4351 255 255 255
-92.0103 64.2641 -13.4768 255 255 255
-113.743 126.218 -52.8221 255 255 255
-81.1891 34.1308 -26.7153 255 255 255
-78.4505 35.1483 -29.9645 255 255 255
-52.7309 -42.5869 19.1605 255 255 255
-76.2559 30.4239 -34.7238 255 255 255
-98.5609 142.394 -51.1211 255 255 255
-42.1758 -57.4936 36.4367 255 255 255
-37.5705 -50.8898 26.8843 255 255 255
-56.6285 69.4782 -12.7538 255 255 255
-67.86 153.982 -66.766 255 255 255
-25.3642 -35.9467 22.0133 255 255 255
-22.8589 -62.9803 40.1123 255 255 255
-22.3268 -64.4193 40.7008 255 255 255
-22.3268 -64.4193 40.7008 255 255 255
-22.047 -63.0378 42.1821 255 255 255
-24.0243 -23.5114 32.1905 255 255 255
-27.7845 103.454 -32.3026 255 255 255
-18.9187 -62.7458 40.0014 255 255 255
-15.6427 -32.6029 35.5566 255 255 255
-14.5746 115.693 -35.6166 255 255 255
-7.46975 68.214 -54.331 255 255 255
-12.7912 -27.9004 36.4138 255 255 255
-12.467 -28.7552 36.9064 255 255 255
-9.2435 -18.5358 34.296 255 255 255
-9.02656 -10.942 33.9875 255 255 255
1.89814 113.145 -39.8794 255 255 255
7.39888 77.4999 -55.5263 255 255 255
4.83181 105.246 -41.29 255 255 255
11.9622 71.5595 -65.7326 255 255 255
6.579 100.525 -39.1252 255 255 255
16.8325 77.2884 -65.1934 255 255 255
16.2643 98.1497 -41.2509 255 255 255
31.5763 99.4563 -56.1956 255 255 255
-137.519 115.373 -63.6119 255 255 255
-113.197 94.611 -30.8574 255 255 255
-110.167 56.5394 -53.8224 255 255 255
-100.074 36.6872 -49.509 255 255 255
-66.601 35.5433 -43.786 255 255 255
-31.268 79.8177 -25.2628 255 255 255
-20.3488 -58.7655 35.6882 255 255 255
-16.0845 83.2556 -34.665 255 255 255
-14.4865 109.423 -36.8484 255 255 255
-15.0971 -22.4079 33.6899 255 255 255
-14.4429 -4.22986 26.4725 255 255 255
2.27376 91.9552 -39.2052 255 255 255
-6.90101 -28.7576 36.6553 255 255 255
11.4888 101.089 -40.01 255 255 255
18.7855 74.5836 -69.6307 255 255 255
-3.26159 -12.1418 35.9576 255 255 255
30.2524 70.1116 -79.9606 255 255 255
-96.4967 124.969 -32.809 255 255 255
-96.4967 124.969 -32.809 255 255 255
-71.7988 66.4157 -5.36505 255 255 255
-52.4658 71.0507 -17.9711 255 255 255
-28.3889 -60.743 37.9409 255 255 255
-23.7794 -35.0899 22.8998 255 255 255
-16.765 -62.2549 38.8762 255 255 255
-7.89911 -45.796 31.7715 255 255 255
-4.97092 -18.0295 36.0492 255 255 255
21.4421 97.0763 -49.7566 255 255 255
22.9235 99.2748 -43.3382 255 255 255
-30.9408 -59.8847 37.6724 255 255 255
-49.372 88.172 -10.5006 255 255 255
-29.0872 -59.5676 36.5199 255 255 255
-29.0872 -59.5676 36.5199 255 255 255
-16.0475 -61.1548 38.0919 255 255 255
-13.9311 -60.0557 36.8738 255 255 255
-6.78908 93.0819 -29.476 255 255 255
-19.3356 -60.1566 37.2487 255 255 255
16.7096 94.7772 -47.4069 255 255 255
-25.9467 78.1158 -33.9229 255 255 255
-15.7112 61.7973 -52.3159 255 255 255
-46.7837 86.0717 -15.6917 255 255 255
-14.0574 81.5447 -38.02 255 255 255
-4.13206 -30.6997 38.2054 255 255 255
-35.4705 82.8135 -13.4118 255 255 255
-133.798 183.1 -95.5751 255 255 255
-14.0296 165.219 -86.5689 255 255 255
-131.293 171.944 -84.7362 255 255 255
-19.7016 161.263 -83.3876 255 255 255
-7.05349 141.67 -57.858 255 255 255
-80.853 146.602 -58.7436 255 255 255
-50.503 150.724 -69.4531 255 255 255
-50.5657 150.913 -69.7198 255 255 255
-135.725 156.594 -74.0483 255 255 255
-81.6256 135.51 -51.4983 255 255 255
-131.643 154.639 -73.4503 255 255 255
-144.04 156.279 -75.5649 255 255 255
-96.6422 123.033 -38.7017 255 255 255
-95.656 123.568 -41.676 255 255 255
-98.2599 117.261 -43.291 255 255 255
-50.0406 102.464 -25.83 255 255 255
-73.8627 95.7274 -14.7331 255 255 255
-110.417 120.409 -51.7289 255 255 255
-76.9407 84.4097 -10.0978 255 255 255
16.0602 91.742 -51.6672 255 255 255
-22.2855 82.2087 -30.7194 255 255 255
15.5605 90.6318 -51.5125 255 255 255
-17.3396 83.3923 -34.8451 255 255 255
-9.3056 85.1198 -40.083 255 255 255
-2.54042 85.4972 -45.2786 255 255 255
29.6916 92.6876 -63.6821 255 255 255
-9.18108 82.7256 -40.7025 255 255 255
17.955 87.665 -56.3711 255 255 255
-14.4372 80.1652 -40.0238 255 255 255
11.6234 86.342 -55.6732 255 255 255
-59.8048 68.972 -13.7441 255 255 255
12.6951 84.1095 -57.1761 255 255 255
-15.0986 77.2463 -40.2523 255 255 255
-68.1069 65.4094 -11.0321 255 255 255
-16.2678 75.8783 -39.5813 255 255 255
28.7843 86.1588 -67.1301 255 255 255
28.7843 86.1588 -67.1301 255 255 255
43.3194 87.0428 -76.0721 255 255 255
15.8162 80.8566 -60.5558 255 255 255
8.33845 79.0222 -57.4582 255 255 255
19.1042 79.4167 -65.2472 255 255 255
-21.3799 71.1595 -41.7101 255 255 255
-21.3799 71.1595 -41.7101 255 255 255
27.9174 79.0707 -72.4317 255 255 255
-40.5839 64.8318 -32.1092 255 255 255
0.576549 72.5437 -56.2901 255 255 255
15.2876 75.3929 -65.5969 255 255 255
-45.1157 63.5365 -30.9259 255 255 255
-1.1151 70.8396 -57.4578 255 255 255
-2.02715 70.5046 -56.8491 255 255 255
-17.1536 67.2554 -47.7482 255 255 255
-22.2647 66.3833 -45.5385 255 255 255
-32.3427 63.6479 -41.2382 255 255 255
-16.9246 65.831 -49.4817 255 255 255
41.5316 76.2455 -84.6263 255 255 255
21.103 72.3747 -73.171 255 255 255
10.7581 69.5325 -66.1299 255 255 255
-2.71478 67.1523 -59.6193 255 255 255
46.5817 74.0792 -88.9687 255 255 255
-35.0575 59.8464 -42.7024 255 255 255
43.692 72.889 -88.2126 255 255 255
-54.4975 54.4455 -29.7834 255 255 255
-16.841 61.317 -53.3449 255 255 255
-16.841 61.317 -53.3449 255 255 255
-12.7455 60.5353 -56.308 255 255 255
-31.173 57.3023 -47.1152 255 255 255
-41.5597 54.9309 -39.779 255 255 255
-41.5373 54.8621 -39.6193 255 255 255
-50.1836 53.1009 -34.2047 255 255 255
11.7808 63.4246 -72.4624 255 255 255
-1.06182 61.215 -64.5672 255 255 255
-26.2073 57.2107 -50.6065 255 255 255
-1.40175 60.8739 -64.8968 255 255 255
-30.7546 55.9382 -49.1797 255 255 255
-2.30412 60.4226 -65.7208 255 255 255
-16.1997 57.7596 -56.8972 255 255 255
32.09 65.4803 -86.3939 255 255 255
0.234999 59.5482 -66.3956 255 255 255
-40.977 52.7573 -41.7632 255 255 255
-54.0617 50.5682 -34.0163 255 255 255
-28.7243 54.4662 -50.2082 255 255 255
-17.1908 56.3796 -57.5075 255 255 255
43.4165 65.5213 -93.5525 255 255 255
-17.5247 55.7766 -57.1292 255 255 255
-17.5203 55.7999 -57.2325 255 255 255
-29.2084 52.954 -51.3318 255 255 255
-41.5682 51.0101 -44.3435 255 255 255
-22.8365 53.6507 -56.1558 255 255 255
-64.3089 46.3862 -30.5105 255 255 255
-13.9055 54.344 -61.8896 255 255 255
-25.6215 52.2972 -54.3389 255 255 255
-25.727 51.9808 -53.2873 255 255 255
-22.172 52.281 -56.4892 255 255 255
-65.3176 45.131 -30.481 255 255 255
-65.3176 45.131 -30.481 255 255 255
-30.9692 50.6449 -52.421 255 255 255
-33.1582 49.8939 -50.9618 255 255 255
-27.2744 50.7569 -55.169 255 255 255
-29.3019 50.284 -54.0562 255 255 255
-8.25606 53.4177 -66.798 255 255 255
-51.3199 46.608 -40.5793 255 255 255
-64.9742 44.3427 -32.3259 255 255 255
-25.8622 50.3241 -56.3378 255 255 255
8.88145 55.1718 -77.3278 255 255 255
-45.8523 47.2414 -44.9166 255 255 255
-63.9708 43.7992 -33.1389 255 255 255
-46.7565 46.2546 -44.5926 255 255 255
-19.5264 47.3038 -55.8976 255 255 255
-7.53829 48.7809 -70.2509 255 255 255
-36.2519 44.0818 -52.4935 255 255 255
-76.7347 38.2088 -27.6032 255 255 255
-76.5714 38.5153 -28.9043 255 255 255
6.53638 49.5978 -80.101 255 255 255
-15.6479 46.6808 -67.9154 255 255 255
5.7386 48.1982 -81.5969 255 255 255
-60.0114 39.1539 -40.7254 255 255 255
-74.2506 36.3068 -31.1738 255 255 255
-72.3275 36.7484 -33.2405 255 255 255
-71.7038 36.7347 -33.3091 255 255 255
-78.1101 35.8935 -29.8207 255 255 255
-34.2736 41.5978 -58.8795 255 255 255
-77.6452 34.8584 -29.6234 255 255 255
-43.0499 27.7615 -15.1331 255 255 255
-11.6834 40.0653 -76.0958 255 255 255
-29.6504 37.7457 -65.4462 255 255 255
-29.7127 37.3864 -63.8374 255 255 255
-15.3727 38.7637 -74.1163 255 255 255
-33.7755 36.2173 -64.0437 255 255 255
-33.7755 36.2173 -64.0437 255 255 255
10.6289 34.7307 -72.1985 255 255 255
10.3577 34.0206 -71.1907 255 255 255
11.5623 33.5526 -71.0187 255 255 255
-52.7867 31.3643 -52.5065 255 255 255
-68.7971 29.755 -43.1977 255 255 255
-62.4954 30.2678 -46.1732 255 255 255
-63.3758 30.0016 -46.1012 255 255 255
-77.951 27.8113 -36.6737 255 255 255
-53.7235 30.5743 -52.5003 255 255 255
-80.3697 25.9699 -35.9037 255 255 255
-82.0794 25.5992 -35.653 255 255 255
-82.6903 25.2218 -35.348 255 255 255
-1.54083 28.1188 -63.2137 255 255 255
-79.8422 24.9371 -37.9131 255 255 255
-44.2367 28.6053 -62.0204 255 255 255
-77.7644 24.3101 -40.2288 255 255 255
-65.8793 24.4423 -48.6098 255 255 255
-77.2645 22.8638 -41.4222 255 255 255
-48.0656 16.2199 -48.0389 255 255 255
-18.8382 12.4875 -45.0384 255 255 255
-21.2227 9.13687 -40.7497 255 255 255
-31.9202 8.85834 -41.3398 255 255 255
-34.4105 8.43531 -40.0771 255 255 255
-8.99659 -1.34374 27.5026 255 255 255
-18.2976 2.17763 1.88843 255 255 255
-14.773 1.13523 7.44588 255 255 255
-16.0211 0.344482 8.72032 255 255 255
-23.9669 5.06885 -33.748 255 255 255
-16.4912 -0.659363 10.1568 255 255 255
-17.7952 -1.06977 10.2252 255 255 255
-26.9916 4.29365 -33.5689 255 255 255
-12.0563 -3.34269 27.6871 255 255 255
-20.26 -0.59122 5.41768 255 255 255
-18.6694 -1.70455 11.9835 255 255 255
-22.5148 -1.12926 6.05142 255 255 255
-18.8393 -1.8598 11.1728 255 255 255
-17.9336 -1.96364 11.9937 255 255 255
-19.2569 -1.96488 11.6291 255 255 255
-19.2314 -1.94589 11.4885 255 255 255
-15.013 -3.83062 25.628 255 255 255
-15.497 -4.2486 25.5082 255 255 255
-50.409 2.64554 -32.3225 255 255 255
-18.8404 -3.16417 13.0994 255 255 255
-19.1477 -3.48048 13.5389 255 255 255
-24.8018 -3.23076 8.70588 255 255 255
-19.1311 -3.99931 14.2347 255 255 255
-25.6181 -3.63284 9.30341 255 255 255
-25.2591 -3.91853 9.51031 255 255 255
-25.2591 -3.91853 9.51031 255 255 255
-23.3875 -3.98659 9.50752 255 255 255
-20.2617 -5.05747 15.9959 255 255 255
-21.0588 -5.08474 15.4478 255 255 255
-11.8555 -6.8337 30.3956 255 255 255
-24.9578 -1.11042 -27.7983 255 255 255
-24.7474 -0.967056 -29.4809 255 255 255
-23.7754 -4.83176 9.9611 255 255 255
-21.3685 -5.45555 15.7225 255 255 255
-9.82646 -7.74813 32.0604 255 255 255
-26.5863 -5.74175 12.487 255 255 255
-21.5997 -6.6678 17.1971 255 255 255
-21.8926 -6.69035 17.3472 255 255 255
-60.4794 -3.71819 -24.3686 255 255 255
-22.4448 -7.84813 18.5372 255 255 255
-12.0438 -9.60768 31.7052 255 255 255
-40.8308 -5.20282 -24.0173 255 255 255
-2.70879 -10.2546 35.2548 255 255 255
-56.9342 208.66 -114.062 255 255 255
-103.479 193.858 -100.031 255 255 255
-115.298 190.501 -95.1063 255 255 255
-111.305 188.97 -94.5705 255 255 255
-111.305 188.97 -94.5705 255 255 255
-115.191 189.491 -95.0418 255 255 255
-110.545 187.958 -94.6326 255 255 255
-34.3945 192.011 -109.562 255 255 255
-38.3113 189.661 -107.68 255 255 255
-101.955 181.594 -92.4646 255 255 255
-98.2591 180.857 -93.2105 255 255 255
-104.731 179.083 -90.3736 255 255 255
-121.741 184.589 -99.9641 255 255 255
-127.187 183.314 -98.5157 255 255 255
-46.8702 158.137 -74.292 255 255 255
-29.6688 160.33 -79.968 255 255 255
-93.4865 143.067 -50.926 255 255 255
-61.3543 152.019 -66.8149 255 255 255
-62.6066 151.867 -66.6716 255 255 255
-30.0732 158.412 -79.1778 255 255 255
-51.7927 153.058 -69.7824 255 255 255
-55.715 152.399 -68.7172 255 255 255
-55.715 152.399 -68.7172 255 255 255
-126.797 170.076 -84.6863 255 255 255
-36.0767 155.409 -75.1185 255 255 255
-93.5023 141.5 -50.168 255 255 255
-83.1898 145.44 -56.9535 255 255 255
-33.019 155.504 -76.6206 255 255 255
-45.9195 153.259 -72.2795 255 255 255
-52.1373 151.199 -69.1182 255 255 255
-132.33 165.759 -80.5656 255 255 255
-132.904 164.353 -80.1874 255 255 255
-81.2546 143.069 -56.7546 255 255 255
-66.7982 145.683 -62.4646 255 255 255
-54.2512 146.746 -66.6405 255 255 255
-82.4041 139.663 -53.6537 255 255 255
-68.3308 143.125 -60.6451 255 255 255
-65.5111 143.507 -61.7673 255 255 255
4.97219 131.38 -51.8573 255 255 255
-32.5432 149.224 -74.2904 255 255 255
17.6499 130.177 -52.1611 255 255 255
17.6256 129.996 -51.8398 255 255 255
-129.564 159.004 -76.9975 255 255 255
-6.32624 127.49 -46.2778 255 255 255
-132.991 157.886 -75.4312 255 255 255
-131.976 156.316 -74.7585 255 255 255
-137.335 154.656 -71.9241 255 255 255
-134.344 153.37 -71.9896 255 255 255
-135.58 153.166 -71.6857 255 255 255
-64.4703 138.666 -59.9032 255 255 255
-16.9953 116.173 -37.6481 255 255 255
-0.0577682 114.293 -37.4831 255 255 255
-99.3561 121.03 -38.8624 255 255 255
-75.4619 102.834 -16.1556 255 255 255
-96.3582 119.386 -42.9832 255 255 255
-100.602 117.048 -41.6214 255 255 255
-50.3948 101.604 -24.8562 255 255 255
17.7016 109.603 -47.7297 255 255 255
-164.251 145.929 -87.1466 255 255 255
-99.8796 114.527 -44.5332 255 255 255
-163.87 145.722 -87.4985 255 255 255
-163.186 144.933 -86.5797 255 255 255
-115.853 107.485 -44.7279 255 255 255
-76.7211 82.9527 -9.86091 255 255 255
14.0043 96.9024 -44.8736 255 255 255
8.10936 95.688 -42.34 255 255 255
11.7228 91.5732 -48.9135 255 255 255
-83.2659 80.2422 -20.6444 255 255 255
-27.1567 79.2431 -29.6573 255 255 255
-10.2383 81.4104 -41.0919 255 255 255
-10.7392 78.3714 -43.2836 255 255 255
-60.999 67.0801 -14.0769 255 255 255
-60.999 67.0801 -14.0769 255 255 255
-82.1136 62.4764 -2.28078 255 255 255
29.8289 86.9404 -67.9763 255 255 255
-6.96231 77.1317 -46.8844 255 255 255
-4.17768 78.34 -50.2552 255 255 255
20.5714 82.8042 -63.879 255 255 255
-4.8093 76.6542 -49.5396 255 255 255
-11.8437 74.5556 -45.5552 255 255 255
-23.0143 71.7771 -39.496 255 255 255
-23.0171 71.7846 -39.5196 255 255 255
-55.707 64.4322 -20.0631 255 255 255
-59.0319 63.7849 -18.6867 255 255 255
10.6606 78.3245 -59.2808 255 255 255
22.4065 81.2868 -68.0658 255 255 255
-55.3346 63.8195 -21.8747 255 255 255
-41.516 66.4174 -29.5537 255 255 255
15.8549 77.8759 -63.0057 255 255 255
-41.8205 66.0294 -29.6894 255 255 255
14.5604 77.6546 -62.8502 255 255 255
17.854 78.3844 -64.9404 255 255 255
-21.508 70.218 -41.962 255 255 255
-152.974 100.828 -97.5266 255 255 255
11.481 75.9349 -61.4805 255 255 255
-42.2766 65.1235 -30.3914 255 255 255
-42.2546 65.1633 -30.4743 255 255 255
-56.1118 61.9324 -22.4792 255 255 255
-56.1118 61.9324 -22.4792 255 255 255
0.228745 73.1711 -56.9519 255 255 255
24.1672 78.0466 -71.7133 255 255 255
-1.74794 71.9461 -54.4409 255 255 255
-19.9467 68.3218 -44.0064 255 255 255
-44.5604 63.5113 -30.1745 255 255 255
0.0503785 72.6237 -56.9228 255 255 255
1.36909 72.2733 -57.4988 255 255 255
-15.4673 68.5326 -47.8956 255 255 255
-36.1147 64.2568 -35.7664 255 255 255
-23.9543 66.1241 -43.7791 255 255 255
-48.4644 61.3157 -29.619 255 255 255
-17.1448 66.3814 -48.6913 255 255 255
39.8169 77.3843 -82.6953 255 255 255
14.431 71.4256 -68.6125 255 255 255
-16.4373 63.4161 -51.9484 255 255 255
-50.0869 56.9834 -32.1089 255 255 255
10.7163 67.1115 -69.3746 255 255 255
10.4976 65.5352 -70.0642 255 255 255
22.8693 67.6908 -78.4661 255 255 255
14.2416 65.5839 -72.3057 255 255 255
-160.075 74.1026 -103.49 255 255 255
27.0244 61.3462 -87.8393 255 255 255
46.7931 64.2186 -99.2621 255 255 255
-3.59492 54.3843 -66.3525 255 255 255
27.7719 59.8269 -87.6086 255 255 255
2.59203 54.9894 -74.1932 255 255 255
-8.82789 52.6243 -65.6905 255 255 255
35.6835 59.307 -94.9445 255 255 255
-75.1329 41.9887 -26.4851 255 255 255
-79.9635 40.8263 -22.5885 255 255 255
-26.729 47.277 -55.2105 255 255 255
-12.8905 48.4219 -68.1652 255 255 255
-58.5263 41.4465 -38.8631 255 255 255
-72.0282 38.5237 -30.5945 255 255 255
-72.0966 38.6852 -31.1262 255 255 255
-31.0788 44.5578 -57.929 255 255 255
-73.642 38.3151 -30.8712 255 255 255
-73.906 37.9942 -30.9541 255 255 255
-77.2868 37.0426 -28.5902 255 255 255
-77.2868 37.0426 -28.5902 255 255 255
-14.4585 44.9527 -69.8197 255 255 255
-14.468 44.9379 -69.7955 255 255 255
-54.4164 39.2946 -44.2263 255 255 255
-58.538 36.117 -43.5659 255 255 255
-76.0348 32.0598 -31.6805 255 255 255
-11.2285 40.211 -75.9703 255 255 255
-36.1523 35.4976 -61.0502 255 255 255
-36.1909 35.6253 -61.5145 255 255 255
-81.4939 29.1128 -33.0994 255 255 255
-51.8303 30.7133 -53.397 255 255 255
-51.8419 30.759 -53.5876 255 255 255
4.70682 31.7303 -68.0965 255 255 255
-83.6063 24.9401 -34.5613 255 255 255
-81.6974 23.6493 -37.2611 255 255 255
-78.1538 24.1148 -40.2048 255 255 255
-83.0873 22.5888 -35.9614 255 255 255
9.37874 23.6743 -58.6417 255 255 255
-77.7632 22.7129 -41.8517 255 255 255
7.11273 23.3024 -58.2348 255 255 255
4.69452 22.2805 -56.5835 255 255 255
-69.2567 19.8245 -49.395 255 255 255
-73.665 16.4695 -46.3081 255 255 255
-7.52267 2.4167 21.6474 255 255 255
-7.59658 2.4074 21.8584 255 255 255
-13.1412 12.317 -45.2456 255 255 255
-17.6255 12.4981 -46.3095 255 255 255
-14.9975 11.2173 -44.0779 255 255 255
-10.8418 0.657275 23.3529 255 255 255
-15.0231 -0.539699 20.028 255 255 255
-9.96592 -1.76076 27.4933 255 255 255
-15.9764 0.910811 7.97776 255 255 255
-36.9898 7.59156 -39.1742 255 255 255
-16.6507 0.12555 8.85747 255 255 255
-16.6145 0.155555 8.68021 255 255 255
-17.1449 -0.525942 9.72896 255 255 255
-66.8882 5.54799 -34.4497 255 255 255
-17.2422 -0.861094 10.1836 255 255 255
-13.6547 -2.92309 25.9 255 255 255
-9.1902 -3.53019 29.2776 255 255 255
-71.5497 4.60858 -34.2715 255 255 255
-72.8083 3.93714 -32.3491 255 255 255
-18.2057 -2.45726 12.1103 255 255 255
-15.6457 -5.08748 26.0463 255 255 255
-7.04737 -6.4875 32.5317 255 255 255
-81.1791 -0.697886 -26.6973 255 255 255
-20.2505 -5.69314 16.0576 255 255 255
-23.8222 -5.18587 10.8478 255 255 255
-11.6113 -8.49255 31.5217 255 255 255
-39.2476 189.358 -106.118 255 255 255
-43.5264 187.826 -105.379 255 255 255
-108.441 180.17 -90.2129 255 255 255
-19.165 167.227 -86.0148 255 255 255
-58.2402 154.708 -69.5937 255 255 255
-87.1957 144.887 -53.8805 255 255 255
-87.1957 144.887 -53.8805 255 255 255
-5.97534 141.84 -58.4096 255 255 255
17.9138 133.239 -48.6939 255 255 255
-60.7609 151.053 -66.8324 255 255 255
-63.3764 150.559 -65.9892 255 255 255
-81.7945 145.595 -57.1999 255 255 255
-43.4558 153.786 -72.9295 255 255 255
-82.3764 145.479 -57.395 255 255 255
-73.354 147.423 -61.2734 255 255 255
-93.5499 140.368 -49.5007 255 255 255
-80.7455 145.189 -57.648 255 255 255
-40.0514 153.062 -73.9207 255 255 255
-51.4136 149.956 -68.8584 255 255 255
-91.6434 139.463 -49.8945 255 255 255
-77.3938 144.275 -58.7739 255 255 255
-96.8404 138.583 -48.6743 255 255 255
-65.2601 145.394 -62.5129 255 255 255
-42.9678 149.251 -70.3466 255 255 255
7.24614 132.709 -52.1607 255 255 255
-72.7803 143.526 -59.6891 255 255 255
-94.7444 137.03 -48.073 255 255 255
-75.2714 142.691 -58.3793 255 255 255
-103.144 157.512 -76.2267 255 255 255
-88.9479 137.116 -50.3628 255 255 255
-93.9868 135.744 -48.1659 255 255 255
-73.1121 141.271 -58.4368 255 255 255
-9.46509 126.384 -44.7392 255 255 255
-66.1213 141.65 -60.7203 255 255 255
-67.3423 141.187 -60.2949 255 255 255
-67.3423 141.187 -60.2949 255 255 255
18.4123 129.696 -52.9217 255 255 255
-78.7347 138.097 -55.496 255 255 255
-77.3597 138.353 -55.9545 255 255 255
-62.9223 141.035 -61.4787 255 255 255
-61.3396 140.762 -61.5437 255 255 255
-65.0681 139.802 -60.1595 255 255 255
0.283266 126.975 -48.8591 255 255 255
-81.6822 115.155 -23.3426 255 255 255
-75.2019 136.719 -55.5616 255 255 255
-58.0389 140.141 -62.4627 255 255 255
-12.9188 122.937 -42.3405 255 255 255
-63.0584 138.207 -59.5387 255 255 255
-63.6962 136.835 -58.9503 255 255 255
-95.6499 124.801 -42.3096 255 255 255
-17.7887 114.76 -36.9862 255 255 255
-99.7793 119.281 -37.3469 255 255 255
-70.1519 104.264 -18.4342 255 255 255
-15.9295 112.189 -36.7789 255 255 255
-95.5113 121.338 -42.1045 255 255 255
-94.2045 120.756 -41.9509 255 255 255
-98.8514 118.746 -40.1388 255 255 255
-74.4645 99.3958 -15.0724 255 255 255
18.6295 115.193 -50.0269 255 255 255
-14.0853 105.219 -34.7448 255 255 255
-112.066 122.209 -51.8808 255 255 255
-112.245 121.093 -51.4791 255 255 255
-112.307 121.181 -51.5775 255 255 255
-53.7277 97.9159 -22.4156 255 255 255
-12.2367 99.3611 -35.6949 255 255 255
-82.5911 88.9572 -12.379 255 255 255
-1.1216 97.525 -36.5098 255 255 255
-114.574 110.433 -46.7112 255 255 255
-115.993 110.327 -46.5242 255 255 255
-118.187 104.776 -43.1763 255 255 255
32.7888 101.587 -54.4079 255 255 255
-44.6848 84.3232 -21.716 255 255 255
12.7592 89.4289 -53.5639 255 255 255
10.9512 88.2298 -51.5033 255 255 255
18.4773 89.4079 -55.5696 255 255 255
-55.5283 70.6614 -12.5284 255 255 255
17.9715 87.5759 -57.3104 255 255 255
-46.4397 72.4504 -20.4841 255 255 255
-67.143 67.1198 -7.31186 255 255 255
-65.0351 67.9755 -9.42467 255 255 255
22.4102 87.1126 -61.3465 255 255 255
3.17717 83.2923 -52.0443 255 255 255
-79.6468 63.4131 -3.24376 255 255 255
-7.56929 79.1339 -44.6563 255 255 255
43.342 89.0977 -74.8217 255 255 255
-26.9876 72.6673 -35.8172 255 255 255
-26.9923 72.6741 -35.776 255 255 255
43.1227 89.5606 -80.6298 255 255 255
-20.5678 73.372 -39.872 255 255 255
-41.9311 68.3875 -27.5515 255 255 255
-4.16783 75.4097 -50.3293 255 255 255
56.6431 87.024 -86.2021 255 255 255
45.2946 80.8897 -83.6463 255 255 255
-2.8849 71.0076 -56.0305 255 255 255
-67.9673 57.6991 -17.7933 255 255 255
-4.83571 69.3605 -55.8934 255 255 255
53.5929 79.6532 -90.2923 255 255 255
-68.9846 56.3461 -18.3101 255 255 255
-68.9846 56.3461 -18.3101 255 255 255
11.2953 70.9401 -67.0644 255 255 255
22.2614 69.084 -73.4667 255 255 255
36.4879 71.0709 -86.2471 255 255 255
-40.5205 55.7738 -40.2525 255 255 255
8.80741 62.4332 -69.0818 255 255 255
-11.7003 59.6875 -59.5721 255 255 255
-52.6862 51.8577 -34.7642 255 255 255
-52.7109 51.8727 -34.7412 255 255 255
-52.7109 51.8727 -34.7412 255 255 255
-26.4137 53.2728 -53.2919 255 255 255
26.5806 59.3758 -90.4006 255 255 255
-59.4344 41.6236 -37.8269 255 255 255
-59.3496 41.5714 -37.5268 255 255 255
-65.7851 37.5752 -37.1735 255 255 255
-72.222 35.4945 -33.7419 255 255 255
-9.23717 41.5201 -75.2666 255 255 255
-40.2519 36.6433 -56.6219 255 255 255
-65.7797 32.3987 -41.5229 255 255 255
-77.7273 29.9874 -34.6587 255 255 255
-59.2232 30.9652 -48.2013 255 255 255
-59.884 29.0096 -49.2307 255 255 255
-62.9117 27.3879 -48.4505 255 255 255
-77.2482 25.3534 -39.4804 255 255 255
11.867 24.5302 -61.197 255 255 255
7.97554 21.6022 -57.6291 255 255 255
-77.1719 20.4861 -43.9919 255 255 255
-78.4447 18.0733 -43.8712 255 255 255
-76.017 17.7457 -46.9055 255 255 255
-22.593 11.8242 -43.369 255 255 255
-69.3446 9.31949 -39.0348 255 255 255
-92.5198 8.25228 -35.6634 255 255 255
-8.21572 -2.40452 28.7737 255 255 255
-20.8176 5.21857 -36.1576 255 255 255
-11.6068 -2.76344 27.4236 255 255 255
-20.7479 0.158349 4.03905 255 255 255
-24.4705 4.67133 -35.7662 255 255 255
-84.9772 4.02621 -32.179 255 255 255
-71.6595 3.98986 -32.7012 255 255 255
-85.0476 3.53406 -31.4275 255 255 255
-26.8139 1.34083 -30.8324 255 255 255
-25.698 -1.35107 -26.8439 255 255 255
-68.6482 -1.5632 -26.831 255 255 255
-24.8084 -6.85225 13.6466 255 255 255
-43.5064 -3.4761 -26.5117 255 255 255
-11.2698 -8.82363 31.7044 255 255 255
-40.2765 -4.90393 -23.2183 255 255 255
-21.5034 -8.37071 19.2751 255 255 255
-21.8492 -8.4441 19.4083 255 255 255
15.8873 137.176 -46.7997 255 255 255
16.5874 136.74 -46.9822 255 255 255
-0.821575 127.258 -48.4354 255 255 255
-6.4783 121.888 -43.9446 255 255 255
-64.9977 101.427 -19.1748 255 255 255
-104.645 119.255 -44.2727 255 255 255
2.38938 108.37 -41.9441 255 255 255
-99.6584 115.679 -43.3476 255 255 255
-99.5719 115.488 -43.2297 255 255 255
-98.9631 115.216 -43.6297 255 255 255
-110.035 120.924 -51.9712 255 255 255
-111.226 119.113 -50.855 255 255 255
-115.826 114.165 -48.2674 255 255 255
-114.311 111.497 -46.8439 255 255 255
-116.183 109.349 -45.8684 255 255 255
-116.533 107.268 -45.0708 255 255 255
-116.533 107.268 -45.0708 255 255 255
-112.972 106.022 -45.017 255 255 255
26.7487 98.1448 -54.5081 255 255 255
-76.3092 74.3746 -4.90369 255 255 255
22.6719 92.3672 -56.3309 255 255 255
-9.48559 85.1732 -40.4742 255 255 255
-33.2886 76.8796 -26.7397 255 255 255
56.1818 96.1458 -77.909 255 255 255
40.7869 92.7345 -69.8036 255 255 255
25.3262 88.4475 -62.503 255 255 255
0.186685 82.1601 -47.936 255 255 255
1.5768 82.0205 -49.4173 255 255 255
-82.735 62.1192 -0.293725 255 255 255
-42.325 70.6684 -24.993 255 255 255
-91.3069 66.7914 -12.7112 255 255 255
56.9289 88.82 -84.6572 255 255 255
16.4268 78.1724 -63.2522 255 255 255
18.5703 78.2754 -65.211 255 255 255
-36.2926 66.9534 -33.0986 255 255 255
-63.9758 59.3056 -20.1884 255 255 255
-16.6497 66.8233 -48.2598 255 255 255
-2.15619 69.2905 -57.8914 255 255 255
0.995023 62.7463 -66.1368 255 255 255
-25.4714 53.9544 -52.9985 255 255 255
46.7704 65.492 -97.2532 255 255 255
6.67864 57.1451 -71.531 255 255 255
-7.38314 53.9953 -65.5097 255 255 255
-13.4392 51.1539 -66.0462 255 255 255
-76.9148 37.4379 -27.8897 255 255 255
-61.0597 37.9918 -40.1548 255 255 255
-66.8116 36.8129 -38.1313 255 255 255
-127.355 48.8723 -78.7653 255 255 255
-81.9525 33.3937 -28.0425 255 255 255
-79.8359 33.6468 -29.5692 255 255 255
-1.71126 43.9168 -81.0603 255 255 255
-80.5258 32.466 -29.6105 255 255 255
-27.4517 37.7378 -65.3561 255 255 255
13.8761 38.4052 -77.0267 255 255 255
10.0008 36.6897 -73.4262 255 255 255
-64.1233 30.2242 -44.2837 255 255 255
-53.6356 31.2856 -51.8603 255 255 255
-1.70407 27.3599 -62.902 255 255 255
-88.6364 23.97 -38.6841 255 255 255
1.14803 21.112 -56.8439 255 255 255
-70.4331 20.3496 -50.1663 255 255 255
-14.1359 11.9146 -44.5608 255 255 255
-16.8166 11.4309 -44.2242 255 255 255
-18.2554 9.35855 -41.7873 255 255 255
-15.9569 -2.15867 22.8465 255 255 255
-29.4803 5.26025 -37.1606 255 255 255
-16.5948 -2.23548 21.3038 255 255 255
-22.1836 -0.470253 4.8736 255 255 255
-32.2762 2.52897 -33.6865 255 255 255
-9.88246 -5.10989 30.3941 255 255 255
-17.3151 -5.24436 24.1378 255 255 255
-36.0799 0.205521 -29.9248 255 255 255
-17.9923 -6.24434 24.0127 255 255 255
-18.729 -6.32257 22.2264 255 255 255
-39.3544 -4.03144 -24.9366 255 255 255
-27.6894 -7.37296 14.4409 255 255 255
-59.7875 196.412 -112.385 255 255 255
-98.6992 120.029 -39.7165 255 255 255
-104.6 121.387 -42.5679 255 255 255
-96.6271 116.931 -43.4359 255 255 255
-135.135 123.161 -61.6987 255 255 255
39.9772 100.189 -60.9298 255 255 255
-11.9828 81.2874 -39.5679 255 255 255
-74.8459 64.9696 -4.30375 255 255 255
-47.6371 69.5781 -21.7632 255 255 255
42.3265 87.9657 -74.6696 255 255 255
56.4268 91.0308 -83.6743 255 255 255
-42.5185 67.877 -28.033 255 255 255
44.9194 86.3793 -78.9717 255 255 255
-7.92043 71.8839 -51.5816 255 255 255
22.7333 74.5995 -71.2232 255 255 255
41.4267 73.2901 -86.8048 255 255 255
41.6922 69.929 -88.203 255 255 255
32.8681 66.7843 -82.7591 255 255 255
32.807 63.3616 -88.3448 255 255 255
-33.0899 48.3162 -52.5809 255 255 255
3.01929 51.786 -74.5659 255 255 255
-59.6708 42.3774 -37.3818 255 255 255
-51.6188 39.4711 -45.1778 255 255 255
-67.1971 36.0877 -38.3463 255 255 255
-13.5558 40.414 -74.2568 255 255 255
-80.0957 21.764 -37.5764 255 255 255
-84.1859 20.3349 -35.8396 255 255 255
5.82675 19.46 -54.8262 255 255 255
-80.2739 18.3245 -42.1853 255 255 255
-17.0551 9.10968 -41.7898 255 255 255
-93.3555 8.02289 -35.6994 255 255 255
-15.7711 -1.94301 22.1545 255 255 255
-8.22671 -3.18477 29.4388 255 255 255
-33.4534 4.81659 -34.2546 255 255 255
-26.7505 3.0763 -33.8516 255 255 255
-15.7629 -3.87666 24.7172 255 255 255
-50.2013 0.424259 -30.6065 255 255 255
-23.5324 -4.21318 10.0417 255 255 255
-26.9297 -0.868769 -29.2473 255 255 255
-26.3862 -4.44057 10.1548 255 255 255
-40.5014 -1.8642 -26.955 255 255 255
-18.532 -6.83413 23.4336 255 255 255
15.7841 211.807 -134.185 255 255 255
-74.6487 188.942 -104.101 255 255 255
-40.6951 73.5354 -24.8984 255 255 255
-51.9957 69.2134 -19.3504 255 255 255
-79.7969 61.3713 -4.38141 255 255 255
-10.1322 73.6463 -45.2064 255 255 255
-0.0144927 72.2209 -57.0253 255 255 255
-63.8409 47.1264 -31.2932 255 255 255
